ply
format ascii 1.0
element vertex 1206
property float x
property float y
property float z
property uchar red
property uchar green
property uchar blue
end_header
0.492300 -0.282100 -0.209702 204 204 204
0.067400 0.151200 -0.368103 204 204 204
0.020400 -0.240100 -0.326004 204 204 204
0.158200 -0.386500 -0.028198 204 204 204
-0.845800 0.237500 0.229004 0 255 0
-0.137800 -0.076800 0.384293 255 255 0
0.209300 -0.084600 0.383499 255 255 0
-0.062100 0.357700 -0.170105 204 204 204
-0.165500 -0.258700 -0.331696 204 204 204
-0.020400 -0.088200 0.382507 255 255 0
0.021500 -0.294300 0.266403 204 204 204
-0.606800 0.249100 0.221100 204 204 204
0.007000 0.015400 0.391495 255 255 0
0.088000 0.302300 0.268799 255 255 0
0.116600 -0.120900 0.375397 255 255 0
-0.046100 -0.063300 0.386307 204 204 204
-0.155700 0.300600 -0.248795 204 204 204
-0.066100 -0.374400 -0.180801 204 204 204
-0.225400 -0.215900 0.342407 204 204 204
-0.115900 0.382700 0.041397 204 204 204
-0.015100 0.282900 -0.282593 204 204 204
0.138600 -0.280300 -0.273697 204 204 204
-0.716200 0.014800 -0.399094 0 255 0
-0.128000 -0.316400 -0.277603 204 204 204
0.426200 0.222400 0.363297 255 255 0
-0.079800 0.255600 0.287903 204 204 204
0.231600 0.112000 0.388901 255 255 0
0.082500 -0.093900 0.380905 255 255 0
0.218800 -0.179900 -0.341797 204 204 204
-0.082800 0.147200 0.354904 255 255 0
0.260300 -0.369000 -0.071701 204 204 204
0.412900 -0.239600 -0.275406 204 204 204
0.603600 0.207800 -0.322296 255 127 0
0.118500 -0.153100 -0.359695 204 204 204
0.088300 -0.215500 0.326904 204 204 204
-0.052400 0.025900 0.387802 255 255 0
0.723600 0.488100 -0.022202 204 204 204
0.380600 0.074500 0.401199 255 255 0
-0.618200 0.314200 0.088898 204 204 204
-0.035900 -0.207200 -0.351196 204 204 204
-0.301900 -0.005000 0.384399 255 255 0
-0.280400 -0.379500 -0.220306 204 204 204
-0.042000 0.076500 0.382202 255 255 0
0.064000 0.383000 -0.143494 204 204 204
-0.246700 0.225200 -0.316696 204 204 204
-0.030100 -0.039700 0.389206 255 255 0
0.402300 -0.353000 0.070999 204 204 204
0.120200 0.414000 -0.019394 204 204 204
0.294100 -0.273300 0.264404 255 255 0
-0.158600 0.303500 0.224701 204 204 204
0.466700 0.130000 0.396103 255 255 0
0.431300 0.172500 -0.359207 255 127 0
0.123100 -0.071000 0.387802 255 255 0
0.185800 0.287500 -0.298401 204 204 204
0.377400 -0.232000 0.300201 255 255 0
0.304900 -0.148400 0.357697 255 255 0
-0.364600 0.274900 -0.254501 204 204 204
-0.244100 -0.434400 0.022598 204 204 204
0.226600 -0.274800 -0.268402 204 204 204
-0.160800 -0.189900 0.351700 204 204 204
-0.036900 -0.190800 0.346603 204 204 204
-0.125600 0.382600 -0.052399 204 204 204
0.446900 0.455100 0.034393 204 204 204
0.207400 -0.304800 0.235199 255 255 0
-0.833100 -0.483300 -0.136398 0 255 255
-0.306300 0.325200 -0.179504 204 204 204
-0.106400 0.385600 0.027100 204 204 204
0.403800 -0.023600 -0.387299 204 204 204
0.032000 0.030600 0.391006 255 255 0
0.424800 0.453000 0.013107 204 204 204
0.104400 -0.384700 -0.091904 204 204 204
0.269600 0.049600 -0.393997 204 204 204
-0.393200 -0.024000 -0.409607 204 204 204
-0.000100 0.029400 0.390106 255 255 0
0.142200 0.329000 -0.250595 204 204 204
-0.208800 -0.181100 0.358002 255 255 0
0.158700 -0.387800 -0.009506 204 204 204
-0.259300 -0.042400 0.386703 255 255 0
0.253900 -0.119700 -0.367706 204 204 204
0.185200 0.248600 -0.326706 204 204 204
-0.293500 -0.136600 0.374207 255 255 0
-0.071900 0.337400 0.189697 204 204 204
-0.107500 -0.105300 0.379303 204 204 204
-0.026100 -0.047900 0.388397 255 255 0
-0.342700 -0.071600 -0.408600 204 204 204
-0.027700 0.374900 -0.136307 204 204 204
0.247900 0.046500 0.397705 255 255 0
0.492100 -0.096000 -0.312805 0 0 255
0.083200 -0.209200 0.330902 204 204 204
0.247600 -0.313400 -0.213104 204 204 204
-0.116100 -0.320200 0.254196 204 204 204
-0.030300 0.277000 -0.290695 204 204 204
-0.120100 0.231100 -0.321701 204 204 204
-0.346100 0.076900 0.365906 255 255 0
0.210800 0.001400 0.396500 255 255 0
0.968500 -0.196500 -0.238205 204 204 204
-0.119800 -0.246500 0.318802 204 204 204
0.081100 0.207200 0.350693 255 255 0
0.034600 0.270800 -0.298599 204 204 204
0.180400 0.388700 -0.163498 204 204 204
-0.016600 0.037100 0.388702 255 255 0
-0.124500 -0.183300 0.353897 204 204 204
-0.391400 -0.329400 -0.300095 204 204 204
-0.649400 0.285500 -0.188995 204 204 204
0.184200 -0.369100 0.107895 204 204 204
0.218500 0.008100 -0.394196 204 204 204
0.477800 -0.097800 -0.363297 204 204 204
0.011200 0.014400 0.391098 255 255 0
0.099700 0.356500 0.197998 255 255 0
-0.110400 0.373000 -0.113998 204 204 204
-0.161200 -0.219600 -0.355896 204 204 204
0.087300 -0.165900 -0.355103 204 204 204
-0.214700 0.251100 -0.296906 204 204 204
-0.036400 0.385700 -0.095703 204 204 204
0.122100 -0.330700 -0.213394 204 204 204
0.298700 -0.343900 -0.140900 204 204 204
0.089200 0.019900 0.393997 255 255 0
-0.183800 -0.087600 0.382401 255 255 0
-0.006200 0.042000 0.388107 255 255 0
0.100900 -0.390100 0.056396 204 204 204
-0.153800 0.031400 0.384995 255 255 0
-0.113800 0.120800 -0.379105 204 204 204
0.076400 -0.357300 0.167694 204 204 204
-0.102200 0.044300 0.384506 255 255 0
0.290500 0.326400 -0.271698 204 204 204
-0.744300 -0.099100 0.376297 204 204 204
0.523300 0.148800 0.394501 204 204 204
-0.011600 -0.007100 0.392197 255 255 0
-0.191900 0.050500 0.379898 255 255 0
0.052400 -0.349000 0.199402 255 0 0
0.167600 0.406300 -0.110703 204 204 204
0.141800 -0.384900 -0.068802 204 204 204
0.006700 0.000900 0.391296 255 255 0
0.026400 -0.193600 0.343307 204 204 204
-0.881400 0.093200 -0.362793 0 255 0
0.209200 -0.369300 -0.099197 204 204 204
-0.239700 0.361800 -0.099106 204 204 204
0.119400 -0.380200 -0.103806 204 204 204
-0.484200 0.110400 0.345993 204 204 204
-0.047000 0.353200 0.165695 204 204 204
-0.019300 -0.405000 -0.061798 204 204 204
0.060800 -0.256300 -0.304596 204 204 204
-0.321200 0.292200 0.209702 255 255 0
-0.200200 -0.418800 0.085693 204 204 204
0.119100 0.376000 -0.172806 204 204 204
0.158600 -0.366800 0.123703 204 204 204
-0.030900 0.358100 -0.176498 204 204 204
0.033300 -0.134200 0.369202 204 204 204
0.452600 -0.299800 0.205200 204 204 204
0.015400 -0.330100 0.227203 255 0 0
0.262700 -0.169100 -0.343597 204 204 204
0.331800 0.373400 0.221497 255 255 0
0.375400 -0.126100 0.369095 255 255 0
0.728600 0.044100 0.409698 204 204 204
-0.254500 0.279700 0.237396 204 204 204
-0.088300 0.177200 0.340805 255 255 0
-0.030700 0.013400 0.390701 255 255 0
-0.433000 -0.232100 0.343903 204 204 204
0.004600 0.382300 0.110992 204 204 204
0.604200 0.435500 -0.163498 204 204 204
0.255100 0.077400 -0.391693 204 204 204
-0.150700 -0.260200 0.310303 204 204 204
0.187800 0.364200 0.213806 255 255 0
-0.093500 -0.150300 0.366196 204 204 204
0.051100 0.219300 0.329407 255 255 0
0.132200 -0.156700 -0.357895 204 204 204
-0.219700 0.308700 -0.226700 204 204 204
-0.157300 0.276100 0.257797 204 204 204
-0.412300 0.056100 0.369797 204 204 204
-0.222300 0.212900 0.305496 255 255 0
-0.019800 -0.001600 0.390594 255 255 0
0.363700 0.442200 -0.052505 204 204 204
0.085800 -0.380600 -0.116501 204 204 204
0.190800 0.116700 0.384201 255 255 0
0.091300 0.408600 0.042007 204 204 204
0.132100 0.385000 -0.156906 204 204 204
-0.046500 0.275900 0.273300 204 204 204
0.003800 0.039500 0.388397 255 255 0
0.130500 -0.389500 -0.038605 204 204 204
-0.083800 -0.052400 0.387497 255 255 0
0.467500 -0.348500 -0.036102 204 204 204
0.375900 0.393500 -0.195908 204 204 204
-0.316800 0.154500 -0.359406 204 204 204
0.536300 0.436400 0.158798 204 204 204
0.443500 0.025000 -0.391907 204 204 204
-0.114600 -0.305600 -0.286301 204 204 204
0.186300 0.122900 0.381699 255 255 0
-0.797400 0.304400 -0.071198 0 255 0
0.518700 -0.268000 -0.224503 204 204 204
-0.598100 0.156100 -0.343506 204 204 204
-0.316800 -0.189400 0.357803 204 204 204
0.080100 -0.174500 -0.352203 204 204 204
-0.098300 0.346800 0.167694 204 204 204
0.250500 0.070000 0.397095 255 255 0
0.078700 -0.345900 -0.197800 204 204 204
0.234100 0.386800 -0.177505 204 204 204
0.284700 -0.066800 -0.383102 204 204 204
-0.036900 0.169800 0.349594 255 255 0
0.119400 0.220700 -0.339706 204 204 204
0.134000 -0.034400 0.392807 255 255 0
0.008000 -0.013300 0.390701 255 255 0
0.304000 0.423400 0.104202 204 204 204
-0.110900 0.128900 0.360992 255 255 0
0.017400 0.031800 0.389694 255 255 0
-0.053800 -0.341500 0.218399 204 204 204
-0.237400 0.366600 -0.073502 204 204 204
0.126900 -0.378000 -0.105804 204 204 204
0.325000 0.210100 -0.356506 204 204 204
-0.444300 0.333500 -0.120499 204 204 204
0.042900 0.249900 -0.317200 204 204 204
0.085800 -0.395400 0.033798 204 204 204
-0.012800 -0.324900 -0.249298 204 204 204
0.045600 0.188400 -0.353394 204 204 204
0.031300 0.389400 -0.112900 204 204 204
-0.764500 -0.488800 0.099396 204 204 204
-0.144800 0.216500 0.311493 204 204 204
-0.371700 0.183000 0.312302 204 204 204
-0.286700 0.086500 -0.389496 204 204 204
-0.173500 -0.333800 -0.264099 204 204 204
0.113000 -0.143800 0.366394 255 255 0
0.063100 0.128900 0.372604 255 255 0
0.822600 0.149700 -0.380798 204 204 204
-0.249100 0.243000 0.276794 204 204 204
-0.147800 -0.044500 0.388306 255 255 0
-0.376600 0.341400 0.090302 204 204 204
0.220600 -0.059600 0.389496 255 255 0
0.158900 0.003000 0.395004 255 255 0
0.352100 0.414500 0.151398 204 204 204
0.105100 -0.031300 0.393600 255 255 0
0.549200 0.445700 0.141098 204 204 204
-0.306700 -0.260700 -0.344406 204 204 204
-0.041800 0.284400 -0.281693 204 204 204
-0.423100 0.251100 -0.274399 204 204 204
-0.151900 0.272500 -0.281799 204 204 204
-0.036700 -0.303000 0.263199 204 204 204
0.136900 -0.212500 0.328400 255 255 0
0.450800 0.314800 0.307495 255 255 0
-0.273900 -0.302800 0.287506 204 204 204
-0.279200 0.248900 -0.292496 204 204 204
-0.101600 -0.413200 0.057007 204 204 204
-0.324500 0.285700 -0.244507 204 204 204
0.020600 0.393000 0.078598 204 204 204
0.332400 0.396600 -0.182007 204 204 204
0.193400 -0.383600 0.012695 204 204 204
0.037200 0.353900 0.186401 204 204 204
0.112300 0.392100 0.122101 204 204 204
0.101900 -0.391400 -0.056702 204 204 204
0.184100 0.287900 -0.298004 204 204 204
0.054200 -0.338800 0.210602 255 0 0
-0.204900 -0.005200 0.385696 255 255 0
0.139500 -0.185900 -0.345093 204 204 204
0.292700 0.361500 0.231995 255 255 0
-0.459200 -0.444000 0.103806 204 204 204
0.177400 -0.121500 -0.370499 204 204 204
-0.276200 -0.094000 -0.403198 204 204 204
-0.158000 -0.361900 0.205994 255 255 0
-0.069400 0.138900 0.361099 255 255 0
0.139900 -0.272600 -0.280899 204 204 204
0.523000 -0.063400 0.387299 204 204 204
0.371600 -0.361000 0.033401 204 204 204
-0.402100 0.185300 0.308197 204 204 204
0.018700 -0.055300 0.387894 204 204 204
0.313800 0.336700 -0.263504 204 204 204
0.120300 -0.133900 0.369995 255 255 0
-0.440100 -0.334800 0.274506 204 204 204
-0.045400 -0.351600 -0.218399 204 204 204
-0.645700 -0.473200 -0.097900 0 255 0
-0.017300 0.014400 0.389801 255 255 0
0.133500 0.013100 0.395905 255 255 0
-0.117100 0.011300 0.387802 255 255 0
0.053600 -0.224200 0.322998 204 204 204
-0.216300 -0.139000 0.371704 255 255 0
0.469800 0.352900 0.271896 255 255 0
-0.049900 0.364200 0.141693 204 204 204
0.494100 -0.289100 -0.198898 204 204 204
0.378800 0.114300 -0.387604 204 204 204
-0.785500 -0.313300 0.322403 0 255 0
-0.581500 0.231900 -0.278198 204 204 204
-0.005600 0.020400 0.390701 255 255 0
0.333100 -0.347100 -0.119705 204 204 204
-0.207100 0.361400 -0.111893 204 204 204
0.090000 -0.395000 0.025604 204 204 204
-0.280100 -0.149100 -0.392502 204 204 204
0.029000 -0.041200 0.388901 255 255 0
-0.454700 -0.242200 -0.367905 204 204 204
-0.287000 0.359600 -0.078796 204 204 204
0.159300 0.070800 0.391602 255 255 0
0.146400 -0.206000 -0.331497 204 204 204
-0.423700 0.050100 -0.397598 204 204 204
-0.228000 0.156100 0.340103 255 255 0
0.349400 -0.364500 0.011505 204 204 204
-0.090400 0.087700 0.376297 255 255 0
-0.223200 -0.252100 0.320908 255 255 0
0.021500 -0.205500 0.336700 204 204 204
-0.001400 0.037000 0.389603 255 255 0
-0.105400 0.197200 -0.346405 204 204 204
-0.432200 -0.173400 -0.394302 204 204 204
0.243200 -0.172400 -0.343506 204 204 204
-0.067800 0.392000 -0.007004 204 204 204
0.208200 -0.360000 -0.129593 204 204 204
0.012700 -0.400100 0.085007 255 0 0
-0.115500 -0.243500 0.320404 204 204 204
0.314200 0.371700 0.223206 255 255 0
0.344000 0.003100 0.400101 255 255 0
-0.448400 0.125600 -0.369293 204 204 204
0.592800 -0.306400 -0.136200 204 204 204
0.125100 -0.354800 -0.168900 204 204 204
-0.029600 0.061400 0.384293 255 255 0
-0.037800 0.382900 -0.104996 204 204 204
-0.054400 0.237400 0.304993 204 204 204
0.020200 -0.173100 0.353806 204 204 204
-0.134400 0.149700 0.350601 255 255 0
0.101700 -0.357900 0.159607 204 204 204
-0.531200 -0.408700 -0.224899 204 204 204
-0.100200 0.318000 -0.233002 204 204 204
0.283000 -0.371900 0.014893 204 204 204
-0.458000 -0.275200 -0.349701 204 204 204
0.049400 0.402300 0.046600 204 204 204
-0.766100 -0.494400 0.009506 204 204 204
-0.654000 0.324800 -0.013000 204 204 204
0.065600 0.408200 -0.019806 204 204 204
0.003600 0.284500 -0.283203 204 204 204
-0.560300 0.146800 0.320099 204 204 204
0.027800 -0.355000 -0.194702 204 204 204
0.091800 0.066900 0.390793 255 255 0
-0.505500 0.071900 0.359894 204 204 204
0.473500 -0.284000 -0.210907 204 204 204
0.112600 0.307700 0.266998 255 255 0
-0.566400 -0.290000 -0.350098 204 204 204
0.333800 0.420800 0.127304 204 204 204
-0.069900 0.108100 0.371506 255 255 0
0.074500 0.169800 -0.363693 204 204 204
-0.784300 0.280300 0.128998 0 255 0
-0.441900 0.221700 0.274506 204 204 204
0.149600 0.127200 0.379700 255 255 0
0.788500 0.400200 0.274506 204 204 204
-0.350300 0.352600 0.052994 204 204 204
-0.188400 -0.326700 0.254501 204 204 204
-0.471800 0.344000 0.005600 204 204 204
0.065800 -0.389600 -0.091797 204 204 204
0.604200 0.440700 -0.152893 204 204 204
0.070900 -0.214700 0.328293 255 255 0
-0.024500 -0.186200 -0.358902 204 204 204
0.087900 0.344600 -0.222107 204 204 204
-0.342300 -0.448000 0.001007 204 204 204
0.132800 0.066300 0.392395 255 255 0
-0.011400 -0.303800 -0.273300 204 204 204
0.021100 0.156400 -0.362396 204 204 204
-0.133300 -0.296900 0.278793 204 204 204
0.039600 0.080400 0.384094 255 255 0
-0.103300 0.257000 0.282501 204 204 204
-0.113200 -0.048200 0.387604 255 255 0
-0.016800 -0.007900 0.391098 255 255 0
-0.047800 -0.163500 0.359604 204 204 204
-0.136900 -0.136600 0.371307 204 204 204
-0.401700 -0.052700 -0.410400 204 204 204
0.271200 0.290100 -0.302902 204 204 204
0.223300 0.217500 -0.347504 204 204 204
0.422500 0.069900 0.402603 255 255 0
-0.070200 0.178000 -0.357193 204 204 204
-0.184100 -0.197800 0.348495 204 204 204
0.265600 -0.172500 -0.341705 204 204 204
0.445900 -0.219200 0.306198 255 255 0
-0.151400 -0.412000 0.089203 204 204 204
-0.264100 0.326500 0.164597 204 204 204
-0.121800 0.114900 -0.381104 204 204 204
0.513800 0.171000 -0.346497 255 127 0
-0.161400 -0.110300 0.378403 255 255 0
0.103600 -0.252700 -0.303696 204 204 204
-0.006500 -0.332900 0.225998 204 204 204
0.296700 0.401400 -0.162903 204 204 204
0.041300 0.029000 0.390900 255 255 0
0.237900 0.396500 0.152206 204 204 204
0.024700 0.022000 0.390396 255 255 0
-0.056800 0.192100 0.335693 204 204 204
0.009300 0.395700 -0.072693 204 204 204
0.341800 -0.198800 -0.319504 204 204 204
0.185000 -0.327900 -0.205002 204 204 204
0.197500 -0.075300 0.386093 255 255 0
0.093200 0.360700 -0.197403 204 204 204
0.137100 0.149500 0.371201 255 255 0
0.036500 -0.052000 0.388702 255 255 0
-0.951200 -0.263700 -0.385300 204 204 204
-0.047700 0.163100 0.351105 255 255 0
-0.425400 -0.029400 0.383606 204 204 204
-0.880100 0.286000 -0.107803 0 255 0
0.216600 0.223400 0.343796 255 255 0
0.193400 0.286400 -0.300400 204 204 204
0.400900 -0.037300 -0.384796 204 204 204
0.053700 -0.089000 0.381897 255 255 0
-0.024200 0.312900 -0.250900 204 204 204
-0.208400 0.188400 -0.345993 204 204 204
0.111200 -0.341100 -0.199402 204 204 204
0.082400 0.038500 0.391693 255 255 0
-0.228600 -0.412300 -0.137802 204 204 204
0.023600 -0.119500 0.374100 255 255 0
0.313100 0.055200 0.399399 255 255 0
-0.665400 0.316800 0.053497 204 204 204
-0.327900 0.124000 -0.374496 204 204 204
0.393300 -0.336200 0.138596 204 204 204
0.292300 0.185600 0.367203 255 255 0
0.643500 -0.254200 0.245102 204 204 204
-0.305500 0.352700 -0.102005 204 204 204
0.201800 -0.365000 -0.117096 204 204 204
0.003000 0.398000 -0.051407 204 204 204
0.924200 0.137500 -0.381500 204 204 204
0.102600 0.180700 -0.359497 204 204 204
-0.307500 0.088500 -0.388107 204 204 204
-0.072500 0.021600 0.387802 255 255 0
0.191400 -0.136900 -0.365601 204 204 204
0.060900 -0.312600 -0.250595 204 204 204
1.013300 -0.283700 0.039505 204 204 204
0.229200 0.196000 0.359100 255 255 0
-0.329200 0.339400 0.112900 204 204 204
-0.110800 -0.000800 0.388199 255 255 0
-0.414500 0.310200 0.159393 204 204 204
-0.269100 -0.332400 0.258102 204 204 204
0.164000 0.212400 -0.347198 204 204 204
-0.114500 0.120300 -0.379303 204 204 204
-0.042400 -0.033400 0.390198 255 255 0
0.605300 0.271400 0.352707 204 204 204
0.486900 0.344100 -0.275696 204 204 204
0.016000 -0.404300 -0.023499 204 204 204
-0.206200 0.374000 0.023895 204 204 204
0.205400 0.152700 -0.375305 204 204 204
0.768100 0.165800 0.405899 204 204 204
0.017700 -0.277400 -0.296494 204 204 204
-0.734200 0.164800 0.288406 0 255 0
0.297100 0.008300 0.399094 255 255 0
0.139700 0.210500 0.350098 255 255 0
-0.013000 -0.022200 0.390594 255 255 0
0.051800 0.078900 0.385193 255 255 0
-0.836900 -0.035000 0.378601 0 255 0
0.013000 0.213100 -0.337296 204 204 204
-0.228600 -0.188200 0.355392 255 255 0
-0.215900 -0.163100 0.364304 204 204 204
-0.393100 -0.343700 -0.285904 204 204 204
-0.003300 -0.120400 0.374603 255 255 0
0.204300 0.225700 0.341995 255 255 0
-0.322900 -0.411600 -0.172302 204 204 204
0.362800 0.439300 0.072403 204 204 204
0.037600 0.167000 0.356400 255 255 0
0.103400 -0.001200 0.395599 255 255 0
-0.103000 0.311000 0.223206 204 204 204
-0.263700 0.314800 -0.210007 204 204 204
0.205000 0.222300 0.343597 255 255 0
-0.073800 0.360900 -0.162003 204 204 204
0.509800 0.127600 -0.369797 255 127 0
0.090200 -0.194200 -0.343597 204 204 204
-0.024700 -0.290300 -0.289795 204 204 204
-0.273600 -0.137900 0.373795 204 204 204
0.008100 0.036700 0.389694 255 255 0
-0.033300 -0.054600 0.387802 255 255 0
0.037500 -0.177900 -0.352402 204 204 204
-0.311900 0.331500 -0.165100 204 204 204
0.062000 -0.016300 0.392105 255 255 0
0.184700 0.374100 0.184799 204 204 204
-0.439600 0.139300 0.334000 204 204 204
0.097900 -0.254500 0.297104 204 204 204
-0.170300 0.302400 -0.244705 204 204 204
-0.020000 0.392500 -0.070999 204 204 204
-0.453000 0.198900 0.293701 204 204 204
0.348500 -0.306700 -0.202698 204 204 204
0.072600 0.246100 0.315094 255 255 0
-0.081600 -0.091000 0.382507 255 255 0
-0.927200 -0.132500 0.383194 204 204 204
0.162000 -0.365300 -0.132401 204 204 204
-0.448800 -0.438700 -0.142807 204 204 204
0.126000 -0.040700 0.392303 255 255 0
0.429400 -0.278700 -0.226196 204 204 204
-0.127500 -0.383200 -0.177505 204 204 204
0.151000 -0.188900 0.343597 255 255 0
-0.244500 0.228500 0.290298 204 204 204
-0.031300 -0.019900 0.391205 255 255 0
0.308700 -0.299900 -0.219696 204 204 204
0.011000 -0.125700 0.372406 204 204 204
-0.224000 0.370400 -0.056396 204 204 204
0.028600 -0.020400 0.391403 255 255 0
0.516000 -0.344300 0.034393 204 204 204
-0.363000 0.298700 -0.220703 204 204 204
0.126000 0.133000 -0.376404 204 204 204
0.256000 -0.180800 -0.337997 204 204 204
-0.033400 0.061800 0.384506 255 255 0
0.128100 -0.190100 -0.343399 204 204 204
0.016600 0.392600 0.076294 204 204 204
0.086000 0.095200 0.385605 255 255 0
-0.316100 0.232200 0.279404 204 204 204
0.940200 -0.004400 0.400696 204 204 204
0.136000 0.191200 -0.356094 204 204 204
0.429600 -0.142000 0.358902 255 255 0
0.053200 -0.314600 0.240097 204 204 204
-0.179400 -0.189900 0.351898 204 204 204
-0.130800 0.355500 0.137604 204 204 204
-0.009800 0.005800 0.391098 255 255 0
-0.567600 -0.444100 0.134903 204 204 204
-0.308900 0.129100 0.349106 204 204 204
-0.778000 0.162500 -0.316498 0 255 0
-0.110600 -0.312300 -0.279800 204 204 204
-0.068400 0.158300 0.351593 255 255 0
0.324600 0.174800 0.375504 255 255 0
-0.017200 0.396300 0.023102 204 204 204
-0.408400 -0.018200 -0.409302 204 204 204
0.550600 -0.335400 -0.055405 204 204 204
-0.158800 -0.352700 -0.237595 204 204 204
-0.006700 -0.124400 0.372803 255 255 0
-0.436000 0.348000 -0.002899 204 204 204
0.387700 0.046400 0.402893 255 255 0
-0.158200 0.372600 0.070099 204 204 204
0.007400 0.392200 -0.089996 204 204 204
0.138500 -0.003800 0.395203 255 255 0
-0.838900 0.127100 0.314499 0 255 0
0.106100 0.110000 0.382797 255 255 0
0.176700 0.257900 0.317505 255 255 0
0.325800 -0.058100 -0.382996 204 204 204
0.321600 -0.350200 0.122101 204 204 204
-0.168100 -0.396800 0.139099 204 204 204
-0.389900 -0.064000 0.384201 204 204 204
0.478800 0.025900 0.404800 255 255 0
-0.158700 0.191200 -0.346405 204 204 204
-0.060200 0.148100 -0.369705 204 204 204
-0.058200 -0.413200 0.015396 204 204 204
0.030800 -0.075900 0.384293 204 204 204
-0.124900 0.335700 -0.200897 204 204 204
-0.102400 0.374000 -0.113693 204 204 204
0.059400 0.251600 -0.316406 204 204 204
0.192200 -0.375400 0.079102 204 204 204
-0.163200 0.102400 -0.384796 204 204 204
-0.104800 -0.031400 0.388794 255 255 0
-0.237100 0.278500 -0.266098 204 204 204
-0.011600 0.390800 0.068802 204 204 204
0.173700 0.421500 -0.027496 204 204 204
-0.949500 -0.350300 0.307800 204 204 204
-0.045100 -0.222400 0.329193 204 204 204
-0.288900 -0.328700 0.264206 204 204 204
0.271700 0.254300 0.330307 255 255 0
-0.948100 -0.332600 -0.349701 204 204 204
0.539000 -0.335700 -0.061401 204 204 204
-0.335300 -0.439600 -0.089798 204 204 204
-0.125000 -0.397700 -0.141907 204 204 204
-0.017000 -0.069400 0.386902 255 255 0
-0.848900 -0.335600 0.309708 0 255 0
-0.088300 -0.413500 -0.061707 204 204 204
-0.830600 0.070600 0.355392 0 255 0
-0.069900 -0.407300 -0.089600 204 204 204
-0.105700 0.278500 0.261597 204 204 204
0.077900 0.163000 0.364197 255 255 0
-0.486300 -0.107600 0.380005 204 204 204
0.053500 0.034500 0.390594 255 255 0
0.341800 0.248000 -0.337906 204 204 204
0.501300 0.069200 0.403503 255 255 0
-0.381300 -0.348100 0.255707 204 204 204
0.412100 0.446800 0.063293 204 204 204
-0.857300 -0.491800 0.085693 204 204 204
0.524500 -0.214600 -0.284195 204 204 204
-0.275500 -0.135500 0.374298 255 255 0
0.230900 0.226000 0.343704 255 255 0
-0.011500 0.030000 0.389999 255 255 0
0.153500 0.160200 0.368896 255 255 0
-0.123400 -0.158000 -0.377899 204 204 204
0.216500 -0.273000 0.271698 255 255 0
0.448300 -0.168500 -0.327698 204 204 204
-0.281600 0.164400 0.331497 204 204 204
0.200600 -0.266300 -0.279800 204 204 204
0.025900 -0.402600 -0.029404 204 204 204
0.617700 -0.200100 -0.283798 204 204 204
0.523500 0.295200 -0.319397 204 204 204
-0.136800 0.087100 0.374207 255 255 0
-0.286500 -0.376300 -0.226303 204 204 204
-0.142200 0.122800 -0.379303 204 204 204
-0.432500 0.323600 -0.153900 204 204 204
0.290000 -0.217700 -0.311295 204 204 204
0.329800 -0.360200 -0.069702 204 204 204
-0.202100 -0.256900 -0.337494 204 204 204
-0.882900 0.205800 -0.268097 0 255 0
-0.798200 -0.492600 -0.082001 204 204 204
0.257400 0.205200 -0.355392 204 204 204
0.133100 0.145000 -0.374405 204 204 204
0.058600 -0.168900 0.354294 204 204 204
0.027400 0.062500 0.386093 255 255 0
0.526000 -0.111000 0.368896 204 204 204
0.064300 -0.352800 -0.189301 204 204 204
-0.122600 -0.001300 0.388596 255 255 0
-0.146300 0.068200 0.378204 255 255 0
0.027700 -0.246900 -0.315506 204 204 204
0.017000 -0.334900 -0.230804 204 204 204
-0.395400 0.041500 -0.400406 204 204 204
-0.270200 0.109200 0.359100 255 255 0
0.040300 -0.013900 0.391693 255 255 0
-0.128300 -0.365300 -0.211304 204 204 204
-0.337100 0.359000 0.009598 204 204 204
0.186000 0.148400 0.374496 255 255 0
-0.108500 -0.290500 0.283493 204 204 204
0.349600 0.307800 0.300598 255 255 0
0.563100 -0.097800 -0.259293 0 0 255
0.708500 -0.130400 0.351700 204 204 204
0.582100 0.465400 -0.069107 204 204 204
0.862700 0.011700 -0.374207 204 204 204
0.879700 -0.167000 0.313904 204 204 204
0.420800 -0.311500 -0.176102 204 204 204
0.443600 -0.348500 0.070908 204 204 204
0.737000 0.304700 0.348495 204 204 204
-0.244200 0.369500 -0.045502 204 204 204
0.181800 -0.132100 0.368607 255 255 0
-0.013100 0.181300 -0.357498 204 204 204
-0.117700 0.105900 0.370499 255 255 0
-0.224800 0.142700 0.347000 255 255 0
0.386100 -0.302000 0.211899 255 255 0
0.000300 -0.362700 -0.187500 204 204 204
-0.726800 0.307800 0.061996 204 204 204
0.257600 -0.280400 -0.256500 204 204 204
0.350300 -0.219200 0.311203 255 255 0
-0.061300 0.276700 0.270798 204 204 204
0.022000 -0.136400 0.368393 204 204 204
-0.047500 0.067500 0.383698 255 255 0
0.013000 0.083800 0.381897 255 255 0
-0.617600 -0.459500 -0.137695 204 204 204
0.005800 -0.038800 0.389801 255 255 0
0.646900 0.062600 -0.385101 255 127 0
0.107900 -0.216500 0.324707 204 204 204
0.074800 -0.020400 0.391998 255 255 0
0.047700 -0.206400 -0.340500 204 204 204
-0.297400 -0.183600 -0.383102 204 204 204
0.348400 0.380100 0.214401 255 255 0
-0.092600 0.051500 0.383194 255 255 0
-0.262700 0.352900 -0.121506 204 204 204
0.124700 0.209500 0.351807 255 255 0
0.251800 0.026200 0.398193 255 255 0
-0.066500 -0.017400 0.389206 255 255 0
-0.161400 0.107400 -0.383606 204 204 204
-0.019400 -0.379600 0.157898 255 0 0
0.223900 0.265000 0.318802 255 255 0
0.466000 0.339500 -0.278503 204 204 204
0.186500 -0.349500 -0.162796 204 204 204
-0.339400 0.277900 0.227997 255 255 0
-0.314500 0.109600 0.356796 255 255 0
0.045200 -0.388800 0.121994 255 0 0
0.061100 -0.246200 -0.312698 204 204 204
0.107800 0.412500 0.016006 204 204 204
-0.426900 -0.173900 -0.394104 204 204 204
-0.469300 -0.293500 -0.338806 204 204 204
-0.133500 0.375300 -0.089706 204 204 204
0.139600 0.036000 0.394104 255 255 0
0.083600 -0.254500 -0.303802 204 204 204
0.340200 -0.365700 0.023407 204 204 204
-0.392100 0.229200 0.272903 204 204 204
-0.477600 -0.125600 0.378006 204 204 204
0.586600 0.431500 -0.168594 204 204 204
0.001400 -0.312100 -0.262802 204 204 204
-0.045900 0.247400 0.298492 204 204 204
0.263400 -0.214200 -0.314896 204 204 204
0.238000 0.003300 -0.393097 204 204 204
0.689800 0.133500 0.406204 204 204 204
-0.058300 -0.005300 0.389496 255 255 0
0.318800 -0.366500 0.038895 204 204 204
0.182800 -0.331000 0.200897 255 255 0
-0.511100 -0.409400 -0.220200 204 204 204
-0.019100 -0.205400 0.338699 204 204 204
-0.204800 -0.223000 -0.357697 204 204 204
-0.357300 0.217200 0.289093 204 204 204
0.502600 -0.234300 -0.268600 204 204 204
-0.813400 -0.138400 0.012894 255 0 0
0.268700 0.073600 -0.391998 204 204 204
-0.250500 -0.232900 0.334900 255 255 0
-0.412500 0.235900 -0.292404 204 204 204
0.290000 -0.116900 -0.365601 204 204 204
0.062200 0.123200 0.377808 255 255 0
0.680200 -0.211500 -0.264099 204 204 204
0.130500 -0.288700 0.261795 204 204 204
0.500500 0.396500 -0.214005 204 204 204
-1.031400 0.205800 -0.247696 0 255 255
-0.029100 -0.042400 0.388702 255 255 0
0.281500 0.352900 -0.239807 204 204 204
-0.591800 -0.424100 0.177902 204 204 204
0.086700 0.202800 -0.348007 204 204 204
-0.117700 0.311800 -0.239395 204 204 204
-0.083700 0.360700 0.140396 204 204 204
0.216800 0.292500 0.295593 255 255 0
0.023100 -0.269500 0.289993 204 204 204
0.170800 0.401500 -0.127701 204 204 204
0.240900 -0.368100 -0.088303 204 204 204
0.228400 0.109500 -0.386093 204 204 204
0.109900 -0.105700 0.377594 255 255 0
-0.052100 -0.408600 0.048294 204 204 204
0.330900 0.231200 0.351501 255 255 0
-0.172700 0.329700 0.180099 204 204 204
-0.019500 0.333900 -0.222305 204 204 204
0.142600 -0.284900 -0.268600 204 204 204
-0.148400 0.211200 0.315994 255 255 0
0.236800 -0.007300 -0.393600 204 204 204
0.101600 0.158600 -0.368500 204 204 204
0.312400 0.127600 0.389297 255 255 0
-0.223200 0.067900 0.374405 255 255 0
-0.469800 0.309200 -0.180405 204 204 204
0.214000 0.202500 0.356094 255 255 0
0.050400 0.292900 -0.280197 204 204 204
-0.179200 0.370100 -0.088806 204 204 204
0.203300 0.281900 -0.303894 204 204 204
0.152100 0.098500 0.387100 255 255 0
-0.170500 0.243400 0.287399 204 204 204
-0.273700 -0.150700 0.370499 255 255 0
-0.015000 -0.056500 0.386993 255 255 0
0.037200 0.035600 0.390793 255 255 0
0.117800 0.409500 -0.063797 204 204 204
0.166800 -0.251500 0.296600 255 255 0
-0.495400 0.224900 -0.296005 204 204 204
-0.369300 0.238000 0.268097 204 204 204
-0.298500 0.095800 -0.385193 204 204 204
0.187800 0.183800 0.360504 255 255 0
-0.021300 0.093200 0.378693 255 255 0
-0.539500 -0.410600 -0.223495 204 204 204
0.108800 0.405100 0.073395 204 204 204
0.730900 -0.043700 0.391693 204 204 204
-0.514400 0.334900 0.049194 204 204 204
0.039500 0.322700 -0.245697 204 204 204
-0.156200 0.172000 0.338806 255 255 0
-0.046500 -0.157500 0.361801 204 204 204
0.049100 0.395600 -0.095795 204 204 204
0.079900 -0.391500 -0.072403 204 204 204
-0.008000 0.086400 0.380295 255 255 0
0.254400 -0.090700 -0.376999 204 204 204
-0.344500 0.225500 0.283203 204 204 204
-0.171900 0.339700 0.162704 204 204 204
-0.190800 -0.420700 0.070801 204 204 204
-0.006000 -0.001100 0.391006 255 255 0
0.044900 0.135000 0.369400 255 255 0
0.344400 0.062300 0.400894 255 255 0
-0.080700 -0.008300 0.388306 255 255 0
0.136500 0.318900 -0.262497 204 204 204
-0.460500 -0.166000 0.369293 204 204 204
-0.393000 -0.099700 0.381699 204 204 204
0.182500 0.229100 0.336700 255 255 0
-0.423200 0.266600 -0.255203 204 204 204
-0.364500 0.091200 0.360306 204 204 204
-0.716900 -0.481900 -0.065094 204 204 204
-0.542000 -0.227700 0.350204 204 204 204
-0.119100 0.068200 0.379303 255 255 0
-0.027100 -0.408100 0.027100 204 204 204
-0.368200 0.134200 -0.368607 204 204 204
-0.145000 -0.423300 -0.039703 204 204 204
-0.481000 -0.427500 0.151306 204 204 204
-0.342200 -0.446300 0.026001 204 204 204
-0.081300 0.389700 0.012802 204 204 204
-0.233900 -0.420200 -0.115402 204 204 204
0.109300 -0.259900 -0.296906 204 204 204
0.168500 0.291400 -0.292603 204 204 204
0.181900 0.216800 0.344299 255 255 0
0.461200 -0.056400 -0.319199 0 0 255
0.296100 0.023400 -0.394196 204 204 204
0.006600 -0.132200 0.370804 204 204 204
0.150300 0.073900 0.391098 255 255 0
-0.037700 0.238900 0.306702 204 204 204
0.375000 -0.009500 0.399597 255 255 0
-0.812500 0.305800 -0.062897 204 204 204
-0.333800 0.322400 0.154907 204 204 204
-0.129300 0.156200 0.348206 255 255 0
0.053200 0.247700 -0.319107 204 204 204
-0.161300 0.098900 0.369797 255 255 0
0.271200 -0.172000 0.346603 255 255 0
0.026300 0.210100 -0.340302 204 204 204
-0.241100 -0.423000 -0.106705 204 204 204
-0.037600 0.015100 0.390503 255 255 0
-0.844000 0.178200 0.273895 0 255 0
-0.132900 0.070700 0.378601 255 255 0
0.547600 0.365100 0.271698 204 204 204
-0.098000 -0.005600 0.388199 255 255 0
0.395900 -0.326700 -0.151703 204 204 204
-0.738600 0.192900 -0.299301 0 255 0
0.262600 -0.327400 0.187607 255 255 0
0.032000 -0.061500 0.386902 204 204 204
0.130700 -0.190000 -0.342300 204 204 204
0.424300 -0.153300 -0.339294 204 204 204
-0.661000 -0.214200 0.356903 204 204 204
-0.000600 0.006500 0.391205 255 255 0
-0.024100 0.318600 -0.241592 204 204 204
0.022500 0.115900 0.373703 255 255 0
-0.041600 -0.410200 0.021194 204 204 204
0.199300 -0.017400 0.395096 255 255 0
-0.083600 -0.144900 0.367203 204 204 204
-0.322400 0.201800 0.304092 204 204 204
-0.134500 0.000700 0.387802 255 255 0
-0.020900 0.266800 0.285202 204 204 204
-0.900000 -0.508000 0.024704 204 204 204
-0.049700 -0.328000 -0.252106 204 204 204
-0.279700 0.366400 -0.017807 204 204 204
0.065700 -0.388300 -0.099503 204 204 204
-0.479500 -0.231700 0.345993 204 204 204
0.187000 -0.132600 -0.367203 204 204 204
-0.292500 -0.286700 -0.323700 204 204 204
-0.045700 0.011200 0.389893 255 255 0
0.159800 -0.071300 0.386993 255 255 0
0.229800 0.028500 -0.394608 204 204 204
-0.276700 0.157400 -0.359604 204 204 204
-0.543500 -0.403800 0.207306 204 204 204
-0.347300 0.297300 -0.223907 204 204 204
0.075800 0.071300 0.388397 255 255 0
0.224100 0.317800 -0.274200 204 204 204
-0.078500 0.372800 -0.128006 204 204 204
-0.086400 0.172200 -0.359100 204 204 204
0.210000 0.124400 -0.383499 204 204 204
-0.231400 0.104700 0.362503 255 255 0
0.206500 -0.136900 0.365204 255 255 0
-0.153300 0.376000 -0.074295 204 204 204
-0.289300 0.359000 -0.081100 204 204 204
-0.665600 -0.430200 0.179199 0 255 0
0.275400 0.364900 -0.221893 204 204 204
0.090300 0.078600 0.389404 255 255 0
0.218800 0.416000 -0.094803 204 204 204
-0.622200 -0.296400 0.314804 204 204 204
-0.161400 0.263200 0.270401 204 204 204
0.064100 0.001000 0.392395 255 255 0
0.571200 0.140000 0.399094 204 204 204
-0.136000 -0.082600 0.383698 255 255 0
0.225600 0.024400 -0.394501 204 204 204
-0.111600 0.383400 -0.062103 204 204 204
0.229000 -0.133200 -0.363403 204 204 204
0.401800 -0.138600 0.362000 255 255 0
0.431200 -0.330400 -0.130798 204 204 204
0.107800 0.059000 0.392593 255 255 0
-0.130700 0.007900 0.387802 255 255 0
-0.199500 0.333000 0.167099 204 204 204
0.342000 -0.301300 -0.212296 204 204 204
-0.749100 -0.284500 0.326004 0 255 0
-0.010300 -0.363000 -0.187897 204 204 204
-0.638100 -0.427400 -0.216995 204 204 204
0.055000 -0.131900 0.369598 204 204 204
0.382300 -0.079100 -0.374695 204 204 204
0.121500 -0.382800 0.081802 204 204 204
-0.045700 0.068900 0.383499 255 255 0
0.292200 0.152500 0.379501 255 255 0
0.039000 0.121500 0.373306 255 255 0
-0.030300 0.349100 0.178802 204 204 204
-0.169000 0.179700 -0.352600 204 204 204
0.340100 -0.294000 -0.222794 204 204 204
0.634900 -0.330500 0.030594 204 204 204
-0.008900 -0.026900 0.391098 255 255 0
-0.475200 -0.160600 -0.400406 204 204 204
0.163700 -0.157900 0.357498 255 255 0
-0.286500 -0.205600 0.350296 255 255 0
-0.092800 0.139400 0.358093 255 255 0
0.678100 -0.312900 0.112000 204 204 204
0.013400 -0.355600 0.206406 255 0 0
0.001000 0.090400 0.380096 255 255 0
0.595500 -0.211300 0.299301 204 204 204
-0.200400 0.375900 -0.018799 204 204 204
0.122600 0.413200 -0.036301 204 204 204
-0.143300 -0.004100 0.388000 255 255 0
-0.427400 -0.412900 -0.195694 204 204 204
-0.069100 -0.412600 0.034393 204 204 204
0.342700 -0.355400 0.093597 204 204 204
-0.342500 -0.309100 0.288193 204 204 204
0.557500 -0.051300 0.390900 204 204 204
0.487800 0.233200 -0.332901 255 127 0
-0.498700 -0.181500 0.365494 204 204 204
-0.333100 0.068200 0.369904 255 255 0
-0.139500 -0.226600 -0.349899 204 204 204
-0.010100 0.167400 -0.357498 204 204 204
0.601500 -0.265300 0.235306 204 204 204
-0.001000 -0.048200 0.388107 255 255 0
0.060000 0.263400 0.299301 255 255 0
0.297600 0.210300 0.357697 255 255 0
0.030000 0.040600 0.390106 255 255 0
0.216700 -0.239900 -0.300400 204 204 204
0.176400 0.189900 0.357498 255 255 0
-0.067100 0.029900 0.386993 255 255 0
-0.223100 -0.385000 -0.198700 204 204 204
-0.406300 -0.196300 -0.384796 204 204 204
0.162400 0.412700 -0.085007 204 204 204
-0.256400 0.323500 0.173798 204 204 204
0.034400 -0.185200 -0.349899 204 204 204
0.146400 -0.041800 0.392303 255 255 0
0.057200 0.141000 0.367599 255 255 0
-0.015500 -0.340400 -0.227905 204 204 204
-0.440000 -0.213600 -0.380402 204 204 204
0.190200 0.364100 0.208893 255 255 0
-0.044400 -0.026500 0.390198 255 255 0
0.012600 -0.202500 0.338898 204 204 204
0.023700 -0.328600 0.226501 255 0 0
-0.146500 0.354500 0.135406 204 204 204
0.167700 0.119500 0.382401 255 255 0
-0.013000 0.023200 0.389999 255 255 0
0.320200 0.161500 0.381699 255 255 0
-0.221700 0.333300 -0.184402 204 204 204
0.076300 0.338900 0.220993 255 255 0
-0.775700 0.299700 -0.099396 0 255 0
0.019000 -0.159300 0.359894 204 204 204
-0.088700 0.155700 0.351700 255 255 0
-0.001000 -0.152800 0.362900 204 204 204
0.240000 -0.009500 0.396805 255 255 0
-0.479200 -0.143800 -0.404404 204 204 204
0.143600 0.356600 0.209396 255 255 0
-0.031200 0.021800 0.389297 255 255 0
-0.221800 0.219400 -0.322998 204 204 204
0.196700 -0.332200 0.197998 255 255 0
0.175200 0.260800 0.315399 255 255 0
-0.390100 0.241300 -0.290207 204 204 204
0.500200 0.309100 -0.307907 204 204 204
-0.234600 0.202800 -0.334396 204 204 204
-0.362000 -0.378200 -0.239197 204 204 204
0.151800 0.417900 0.022202 204 204 204
-0.113100 0.123900 -0.378601 204 204 204
-0.073000 -0.075500 0.384506 255 255 0
0.048600 0.288200 0.274506 255 255 0
0.250900 0.097000 0.392807 255 255 0
0.349100 0.391300 -0.194107 204 204 204
-0.372400 -0.445900 0.056793 204 204 204
-1.003700 0.076300 0.334106 204 204 204
0.171200 -0.385600 -0.023804 204 204 204
0.321500 0.439700 -0.021500 204 204 204
-0.052300 0.137300 0.362595 255 255 0
0.272400 -0.075200 -0.380493 204 204 204
-0.052400 0.355800 -0.176804 204 204 204
0.570400 0.247100 0.362198 204 204 204
0.206800 0.420200 -0.067398 204 204 204
0.490800 0.080500 -0.391693 204 204 204
0.207700 0.258100 -0.322296 204 204 204
0.012100 -0.336000 -0.229202 204 204 204
-0.398300 -0.206300 0.354797 204 204 204
-0.099200 -0.200700 -0.359894 204 204 204
0.128900 -0.384300 -0.078598 204 204 204
0.363900 -0.006900 0.399307 255 255 0
-0.828300 0.010900 -0.399399 0 255 0
-0.179200 -0.426400 0.026199 204 204 204
-0.388800 -0.130100 0.376801 204 204 204
0.162500 0.030400 0.395493 255 255 0
-0.126200 0.383700 0.021698 204 204 204
-0.976100 -0.091800 -0.413696 204 204 204
0.162000 0.403200 -0.118896 204 204 204
-0.132000 -0.179900 0.355499 204 204 204
-0.095300 -0.149500 0.366501 204 204 204
-0.407200 -0.171300 -0.393204 204 204 204
0.565200 0.433300 0.173706 204 204 204
0.577100 0.099900 0.404907 204 204 204
-0.221400 -0.282800 0.299805 204 204 204
-0.003900 0.014500 0.391098 255 255 0
-0.166200 0.360800 -0.131393 204 204 204
0.102100 0.147900 0.374603 255 255 0
0.296000 0.400200 -0.165207 204 204 204
-0.314300 -0.007500 0.384201 255 255 0
0.320700 0.018500 0.399597 255 255 0
-0.162200 -0.330200 0.248398 204 204 204
-0.352000 0.259400 -0.274796 204 204 204
0.266300 -0.137000 -0.359406 204 204 204
-0.227600 0.372500 -0.030701 204 204 204
0.274900 -0.336700 -0.165695 204 204 204
0.291700 0.165800 -0.372604 204 204 204
0.210000 -0.126600 0.369202 255 255 0
-0.079800 -0.214100 -0.351395 204 204 204
0.001100 -0.251700 -0.319702 204 204 204
0.091100 -0.384400 0.088196 204 204 204
-0.113400 -0.418200 0.031906 204 204 204
-0.367800 0.127100 0.344101 204 204 204
-0.017700 0.280000 -0.285004 204 204 204
0.790600 0.455300 -0.162094 204 204 204
0.069700 -0.303600 -0.259201 204 204 204
-0.080600 -0.171300 -0.371201 204 204 204
0.185300 0.333000 -0.251999 204 204 204
-0.270800 0.300700 -0.230804 204 204 204
0.038300 -0.098100 0.380005 204 204 204
0.031700 0.315400 0.241196 204 204 204
-0.217000 0.318700 -0.211899 204 204 204
0.151800 0.112300 0.383606 255 255 0
-0.201700 -0.273800 -0.325394 204 204 204
0.254000 0.237500 -0.338303 204 204 204
-0.150100 -0.233400 0.328003 204 204 204
0.099300 0.322300 -0.253403 204 204 204
-0.031000 0.387900 -0.092102 204 204 204
0.154000 0.270700 -0.309006 204 204 204
-0.420800 -0.456800 -0.032898 204 204 204
-0.119600 0.269700 -0.290497 204 204 204
0.598400 -0.055500 -0.255707 0 0 255
-0.224900 -0.155900 0.367401 255 255 0
-0.191800 -0.169000 -0.379807 204 204 204
-0.180700 0.025200 0.384094 255 255 0
0.285500 -0.294900 -0.232803 204 204 204
-0.288700 -0.439700 -0.039795 204 204 204
0.056800 0.333000 0.223694 204 204 204
-0.217000 -0.266400 -0.332306 204 204 204
0.194900 0.407900 0.107697 204 204 204
0.523700 0.361000 0.272095 204 204 204
0.216500 -0.358600 0.131607 204 204 204
-0.123900 0.041800 0.384506 255 255 0
-0.022300 -0.299700 0.264893 204 204 204
-0.145000 -0.086300 0.382797 255 255 0
0.012400 0.298600 0.258194 204 204 204
0.180100 0.382100 -0.177399 204 204 204
-0.411100 -0.098500 0.382202 204 204 204
-0.291700 0.047800 0.377197 255 255 0
0.205700 -0.120600 0.371399 255 255 0
-0.703000 0.229900 -0.265396 0 255 0
0.125000 0.208000 0.354401 255 255 0
0.034900 0.235900 -0.324997 204 204 204
-0.111700 -0.186100 0.352295 204 204 204
0.070200 0.335600 -0.233307 204 204 204
0.355700 -0.324700 0.175903 204 204 204
0.066000 0.079800 0.384995 255 255 0
0.135300 0.157000 0.368393 255 255 0
0.593100 0.416700 0.210800 204 204 204
-0.001800 0.277000 -0.288696 204 204 204
0.107000 0.306200 0.266693 255 255 0
-0.360500 0.331100 0.127304 204 204 204
0.140900 0.155600 0.369705 255 255 0
0.053800 0.387700 0.113693 204 204 204
0.442700 0.129100 0.395493 255 255 0
-0.367200 0.187400 0.310104 204 204 204
0.413300 0.335400 0.282593 255 255 0
0.284100 -0.117100 0.373901 255 255 0
-0.031000 0.279400 0.272003 204 204 204
-0.074900 0.381700 -0.094299 204 204 204
-0.376800 -0.446400 0.057297 204 204 204
-0.375700 -0.037000 -0.410904 204 204 204
-0.349100 -0.254800 -0.352203 204 204 204
0.040100 -0.106400 0.377701 204 204 204
0.119600 0.406100 0.077103 204 204 204
-0.027400 0.055500 0.386307 255 255 0
-0.000700 0.052100 0.386505 255 255 0
0.361800 -0.357600 0.073593 204 204 204
-0.005000 -0.170800 0.355392 204 204 204
-0.008300 -0.074100 0.385300 255 255 0
0.028600 0.109800 0.376205 255 255 0
0.306700 -0.315400 -0.196198 204 204 204
0.365100 0.417200 0.149506 204 204 204
-0.058100 -0.014500 0.389404 255 255 0
-0.141300 0.333200 0.181000 204 204 204
0.530900 0.122200 -0.366394 255 127 0
0.449300 0.145300 0.391800 255 255 0
-0.043300 -0.363900 0.178802 204 204 204
-0.106800 0.387300 0.007202 204 204 204
-0.248900 -0.114100 0.378494 255 255 0
-0.556000 -0.354400 -0.296295 204 204 204
0.689800 -0.279000 0.196503 204 204 204
-0.308300 -0.373600 -0.236893 204 204 204
0.256300 -0.169600 0.349594 255 255 0
-0.366600 -0.269000 -0.345200 204 204 204
0.131900 -0.139200 -0.364899 204 204 204
0.044100 0.300600 0.261597 255 255 0
0.279100 -0.030200 -0.389603 204 204 204
-0.183400 -0.198100 -0.368393 204 204 204
0.251500 -0.251700 -0.286407 204 204 204
0.039500 -0.106600 0.377808 204 204 204
0.037200 0.391500 -0.107193 204 204 204
-0.071000 -0.046300 0.387207 255 255 0
-0.781100 -0.460700 -0.180603 0 255 255
-0.058500 0.269200 0.277695 204 204 204
0.465100 0.042100 0.404694 255 255 0
-0.013500 0.393200 0.057007 204 204 204
0.022900 0.369700 -0.163498 204 204 204
0.503000 0.006300 0.401398 204 204 204
-0.467200 -0.382700 0.222702 204 204 204
-0.126000 0.333600 -0.204407 204 204 204
0.012300 0.386300 0.099701 204 204 204
0.479200 0.459500 0.031998 204 204 204
-0.148200 0.274800 0.261307 204 204 204
0.205100 -0.382800 0.002502 204 204 204
0.296100 -0.369000 0.036896 204 204 204
0.005200 0.396600 -0.063004 204 204 204
-0.096800 0.183700 0.336304 255 255 0
-0.350500 0.345100 -0.113907 204 204 204
0.373300 0.418200 0.148804 204 204 204
-0.322700 0.069800 0.369904 255 255 0
0.419800 0.207100 0.369507 255 255 0
-0.051000 0.369700 -0.143600 204 204 204
-0.136500 0.382900 0.007797 204 204 204
-0.001900 0.016500 0.391296 255 255 0
-0.120100 0.181200 0.336899 255 255 0
0.269000 -0.369500 -0.063095 204 204 204
-0.148500 0.326400 -0.211502 204 204 204
0.074100 0.152000 0.365601 255 255 0
-0.212500 -0.238900 -0.349899 204 204 204
0.022300 0.147900 0.364197 255 255 0
-0.217200 -0.276700 -0.324295 204 204 204
0.496900 0.407500 -0.195496 204 204 204
-0.151800 -0.409600 -0.115906 204 204 204
0.231700 0.413800 0.103500 204 204 204
-0.372300 0.325800 0.137802 204 204 204
-0.384300 0.350400 0.042496 204 204 204
-0.134100 -0.271100 -0.319794 204 204 204
-0.018500 -0.071200 0.385300 255 255 0
0.085600 -0.085900 0.382095 255 255 0
-0.067700 0.384900 -0.084793 204 204 204
-0.043400 -0.027200 0.389694 255 255 0
0.115900 0.318400 -0.260696 204 204 204
-0.271900 -0.327000 -0.285706 204 204 204
0.062000 0.018700 0.391495 255 255 0
0.022600 0.266600 0.290298 204 204 204
-0.126000 0.027800 0.386002 255 255 0
-0.194800 -0.005800 0.386597 255 255 0
-0.473000 -0.455000 0.067505 204 204 204
-0.429200 0.005100 -0.407104 204 204 204
0.839800 -0.296300 0.103699 204 204 204
-0.009600 0.020600 0.390396 255 255 0
-0.092800 0.215200 -0.336899 204 204 204
-0.336200 0.058600 0.372498 255 255 0
-0.380000 0.355400 -0.001907 204 204 204
0.452200 -0.022100 0.400696 255 255 0
0.313700 -0.359700 -0.080795 204 204 204
0.305400 -0.288800 -0.237701 204 204 204
-0.241900 0.345400 -0.153198 204 204 204
-0.434500 -0.329900 -0.304993 204 204 204
0.440000 0.375700 0.243301 255 255 0
-0.069700 -0.327900 0.239899 204 204 204
0.865300 0.020300 -0.375702 204 204 204
-0.272500 -0.393000 0.172699 204 204 204
-0.291800 -0.372900 0.210098 204 204 204
0.368300 -0.163500 -0.338699 204 204 204
0.231500 0.138300 0.381302 255 255 0
-0.215100 -0.420000 -0.106506 204 204 204
0.467100 -0.260400 -0.244202 204 204 204
0.050300 0.060900 0.387299 255 255 0
-0.045700 0.246100 0.300201 204 204 204
-0.514700 -0.397900 0.208893 204 204 204
0.111800 -0.056200 0.391403 255 255 0
0.261700 0.189100 -0.363403 204 204 204
-0.192300 0.308300 0.210999 204 204 204
-0.732400 0.046200 0.353607 204 204 204
0.132500 0.140800 -0.375595 204 204 204
0.384600 0.418300 0.151901 204 204 204
-0.123600 0.027600 0.385803 255 255 0
-0.057100 -0.007500 0.389206 255 255 0
-0.019700 -0.022900 0.390900 255 255 0
0.259300 -0.234000 -0.300400 204 204 204
-0.189900 0.314400 0.203003 204 204 204
0.031400 -0.188700 -0.348007 204 204 204
-0.152600 -0.247900 -0.338593 204 204 204
-0.044400 0.084800 0.379700 255 255 0
0.138100 0.413300 0.049301 204 204 204
0.103100 0.310700 -0.267502 204 204 204
0.252800 -0.276700 0.262802 255 255 0
-0.352500 0.185100 -0.339005 204 204 204
-0.270300 0.255900 -0.286499 204 204 204
0.011200 -0.146300 0.365494 204 204 204
0.604200 -0.314900 0.134506 204 204 204
-0.592100 -0.475600 0.003204 204 204 204
-0.331200 -0.029900 0.384506 255 255 0
-0.196900 0.261500 0.268005 204 204 204
-0.337100 -0.129500 -0.400299 204 204 204
-0.155400 -0.112900 0.377808 255 255 0
-0.540200 -0.469000 0.026199 204 204 204
0.010900 -0.223600 -0.336700 204 204 204
-0.168000 -0.377100 0.181503 204 204 204
-0.113500 0.033100 0.384506 255 255 0
-0.022700 0.018000 0.390198 255 255 0
-0.038700 0.122600 0.368698 255 255 0
-0.140300 -0.007600 0.388397 255 255 0
-0.723900 0.283800 0.140396 204 204 204
-0.489600 -0.238400 -0.372696 204 204 204
-0.175500 -0.275800 0.300293 204 204 204
-0.037900 0.085800 0.380203 255 255 0
0.504400 -0.133100 0.362305 255 255 0
-0.005400 -0.404500 -0.055603 204 204 204
-0.090300 0.282500 -0.279907 204 204 204
0.283600 -0.231300 0.305298 255 255 0
-0.054700 -0.320400 0.245804 204 204 204
0.494900 -0.343700 0.065796 204 204 204
-0.194000 -0.142400 0.370193 255 255 0
0.408200 -0.320900 0.171005 204 204 204
-0.004900 -0.321100 0.238205 255 255 0
-0.931600 0.175700 0.264893 204 204 204
0.770100 0.356000 0.316193 204 204 204
-0.445000 0.312400 -0.176498 204 204 204
-0.022600 -0.035400 0.388901 255 255 0
0.280300 -0.039800 -0.388107 204 204 204
-0.021300 -0.376300 0.165802 204 204 204
0.500700 0.120000 0.398300 255 255 0
0.084200 0.134200 0.373703 255 255 0
-0.276500 -0.125500 0.377197 255 255 0
0.397300 0.254000 0.344101 255 255 0
-0.160100 0.197800 0.323196 255 255 0
-0.463600 -0.443900 0.104294 204 204 204
0.211400 -0.293900 -0.247696 204 204 204
0.135500 0.393700 0.126404 204 204 204
-0.462200 -0.174000 -0.397507 204 204 204
0.133800 -0.288100 0.262604 255 255 0
0.016400 0.144200 0.363693 255 255 0
-0.147100 0.133400 0.357697 255 255 0
0.261600 -0.142400 -0.357193 204 204 204
-0.587100 0.094600 0.345795 204 204 204
0.175300 -0.054400 0.390701 255 255 0
-0.065400 -0.200600 0.342804 204 204 204
-0.339200 0.348800 0.078506 204 204 204
0.659500 0.464400 -0.104294 204 204 204
0.163300 -0.219400 0.322296 255 255 0
0.095700 0.409000 0.035995 204 204 204
-0.126100 -0.226800 0.331894 204 204 204
0.076600 0.305500 0.262100 255 255 0
0.028800 0.202300 -0.344894 204 204 204
0.062400 0.205700 0.339401 255 255 0
-0.936200 -0.234800 -0.395096 204 204 204
-0.041700 0.243100 0.302399 204 204 204
-0.139500 0.238300 0.295807 204 204 204
0.828900 0.308600 -0.324997 204 204 204
0.028900 0.354200 0.183395 204 204 204
-0.773100 -0.484900 0.076996 204 204 204
0.188100 0.417300 -0.074203 204 204 204
0.613400 -0.325100 0.091293 204 204 204
-0.062400 0.006700 0.388397 255 255 0
0.024600 0.023100 0.391495 255 255 0
-0.348900 -0.340700 0.259506 204 204 204
-0.410500 -0.267500 -0.349594 204 204 204
-0.403800 -0.014100 -0.408905 204 204 204
-0.070000 -0.345200 -0.233200 204 204 204
0.197700 0.408500 0.105896 204 204 204
-0.390100 -0.043800 -0.410400 204 204 204
0.154700 0.402000 -0.120697 204 204 204
-0.397200 -0.236400 -0.366104 204 204 204
-0.198300 0.139100 0.351303 255 255 0
0.646000 -0.295800 0.171295 204 204 204
