ply
format ascii 1.0
element vertex 1202
property float x
property float y
property float z
property uchar red
property uchar green
property uchar blue
end_header
0.234164 -0.369157 0.085707 204 204 204
0.194781 -0.341995 0.174957 204 204 204
0.004929 -0.281224 0.283224 204 204 204
0.226000 0.330550 -0.260651 204 204 204
0.872700 -0.137100 0.338303 204 204 204
0.343675 0.218500 0.358727 255 255 0
-0.165115 0.362900 -0.125374 204 204 204
-0.364963 -0.312637 -0.312424 204 204 204
-0.763533 -0.005600 -0.395101 0 255 0
0.826900 0.466600 -0.145050 204 204 204
0.014937 -0.144876 0.365974 204 204 204
-0.780200 0.036700 0.360397 0 255 0
-0.274480 -0.311480 -0.300900 204 204 204
-0.946500 0.057900 -0.377502 204 204 204
0.174464 -0.382755 0.045203 204 204 204
0.594933 0.105400 0.404933 204 204 204
0.354558 -0.203967 0.322974 255 255 0
-0.045180 -0.393744 -0.125249 204 204 204
-0.065600 0.297787 0.247472 204 204 204
0.034679 0.246918 -0.317775 204 204 204
0.935050 0.124600 0.417953 204 204 204
-0.724300 0.281975 0.144421 0 255 0
-0.354440 -0.378380 -0.238220 204 204 204
-0.180200 -0.419700 0.069702 204 204 204
0.393780 -0.351420 0.083908 204 204 204
-0.903500 -0.241400 0.361099 204 204 204
-0.864450 -0.446450 0.193199 0 255 0
-0.134987 0.105022 -0.383654 204 204 204
0.534567 0.336567 -0.286952 204 204 204
-0.754900 0.177250 -0.308747 0 255 0
0.044806 -0.174622 0.352311 204 204 204
0.435146 -0.024792 -0.385931 204 204 204
-0.185319 0.056359 0.379253 204 204 204
-0.665650 -0.252000 0.341247 0 255 0
0.455000 -0.201000 0.320496 255 255 0
-0.054808 -0.403400 -0.094748 204 204 204
0.255075 -0.287825 -0.247437 204 204 204
-0.605733 -0.344667 0.276866 204 204 204
-0.025179 -0.263662 -0.313090 204 204 204
-0.667033 -0.054233 -0.413996 204 204 204
-0.484700 0.230200 -0.291351 204 204 204
-0.850500 -0.502200 0.024803 0 255 0
-0.514967 0.314967 -0.155431 204 204 204
-0.483633 0.341667 -0.054566 204 204 204
-0.983650 0.113250 -0.343399 204 204 204
0.185010 -0.231460 0.311479 255 255 0
-0.094867 -0.380767 0.160863 204 204 204
0.194880 -0.313450 -0.224906 204 204 204
-0.855850 0.305100 0.055748 0 255 0
-0.113667 0.350758 0.152625 204 204 204
0.465075 0.415825 -0.174747 204 204 204
-0.617000 -0.450950 -0.162247 204 204 204
-0.225105 0.246905 0.277184 204 204 204
-0.414850 0.346058 -0.075127 204 204 204
0.234983 -0.082125 -0.380499 204 204 204
0.393967 0.419567 -0.148163 204 204 204
-0.394754 0.314477 0.155022 204 204 204
-0.743200 -0.476000 -0.122894 0 255 0
-0.454871 -0.323900 -0.312999 204 204 204
0.174728 0.175119 0.363496 255 255 0
-0.553500 -0.471700 -0.024925 204 204 204
-0.515787 -0.075487 0.382166 204 204 204
-0.596500 -0.461700 -0.122200 204 204 204
-0.453600 -0.158900 -0.399704 204 204 204
0.005015 0.148638 -0.362745 204 204 204
0.634667 -0.235517 -0.244731 204 204 204
0.503550 0.379550 -0.237900 204 204 204
0.654200 -0.319400 -0.069107 204 204 204
-0.715200 0.132800 -0.350204 0 255 0
0.265483 -0.094017 0.381562 255 255 0
0.016640 0.400800 0.023779 204 204 204
-0.546167 -0.416300 0.184670 204 204 204
-0.925400 -0.306000 0.333802 204 204 204
-0.374967 0.309233 -0.199066 204 204 204
0.686080 -0.195320 0.305460 204 204 204
0.364750 0.290975 -0.310650 204 204 204
0.818200 -0.270600 -0.153503 204 204 204
-0.575367 -0.294667 0.314631 204 204 204
-0.584829 0.243914 -0.263798 204 204 204
0.403220 -0.350620 0.082901 204 204 204
-0.195005 -0.306205 0.276387 204 204 204
0.292850 -0.230150 -0.300354 204 204 204
0.515867 -0.072333 -0.248235 0 0 255
-0.734760 0.215800 -0.275418 0 255 0
-0.134644 0.025163 0.386228 204 204 204
0.175169 0.214997 -0.346843 204 204 204
0.917200 0.253000 0.391647 204 204 204
-0.335277 0.292369 -0.233731 204 204 204
0.335300 0.284458 0.317324 255 255 0
0.897900 0.390900 0.301407 204 204 204
-0.866100 -0.373600 0.281006 0 255 0
0.962500 -0.259250 0.172402 204 204 204
0.836500 0.346500 -0.299301 204 204 204
-0.395108 -0.105354 -0.406930 204 204 204
-0.744025 0.283950 -0.165424 0 255 0
-0.545386 -0.344600 -0.304716 204 204 204
0.544733 -0.298933 -0.168335 204 204 204
-0.154850 -0.175403 0.357874 204 204 204
0.453400 0.429000 0.149796 204 204 204
0.926600 0.496800 -0.089401 204 204 204
-0.524857 -0.135186 0.376489 204 204 204
0.977900 -0.217100 -0.209595 204 204 204
0.901900 0.507900 0.055550 204 204 204
0.484800 -0.055188 0.391498 255 255 0
0.255175 0.199225 0.359650 255 255 0
0.025183 0.380517 -0.141317 204 204 204
0.914900 0.500400 0.111603 204 204 204
0.234820 -0.227753 -0.308127 204 204 204
-0.768350 -0.492767 -0.084869 0 255 0
0.175117 -0.385228 0.014840 204 204 204
0.594500 0.434075 -0.165127 204 204 204
-0.544900 0.330575 -0.084274 204 204 204
0.214665 -0.366761 -0.105360 204 204 204
0.921200 -0.290650 0.083847 204 204 204
0.746500 -0.267200 0.207108 204 204 204
0.765667 0.146167 -0.381134 255 127 0
-0.545871 0.263029 -0.244742 204 204 204
0.184547 -0.273644 -0.274076 204 204 204
-0.275355 -0.295465 -0.315156 204 204 204
0.739500 -0.198200 -0.269196 204 204 204
-0.224550 -0.426236 0.065206 204 204 204
0.094900 -0.330250 -0.220649 204 204 204
-0.875150 -0.446400 0.195251 0 255 0
0.024648 0.376431 0.135101 204 204 204
-0.695800 -0.056775 -0.413227 0 255 0
0.535433 -0.315167 -0.135353 204 204 204
-0.405160 0.347650 0.044751 204 204 204
0.054804 -0.386523 0.124685 255 0 0
0.405167 0.377011 0.236099 255 255 0
0.344775 0.074806 -0.392675 204 204 204
-0.244800 -0.175933 -0.382146 204 204 204
0.684233 -0.324233 0.024297 204 204 204
-0.125485 -0.421085 -0.015564 204 204 204
-0.264333 -0.228683 -0.358948 204 204 204
0.414582 0.155173 0.387527 255 255 0
-0.225540 -0.302687 0.282886 204 204 204
0.064767 -0.233212 -0.322101 204 204 204
0.304420 -0.340480 0.151858 204 204 204
0.556100 0.460925 -0.076149 204 204 204
-0.395292 -0.164800 -0.394401 204 204 204
0.284978 0.225191 -0.346643 204 204 204
-0.704300 -0.346400 -0.315300 0 255 0
-0.923900 -0.509550 0.033646 204 204 204
0.823950 -0.203450 0.284897 204 204 204
0.458189 -0.075122 -0.334790 0 0 255
0.665200 0.352567 0.302368 204 204 204
-1.035400 0.233100 0.172104 204 204 204
-0.372667 -0.061833 -0.410131 204 204 204
0.833500 0.265250 -0.348305 204 204 204
-0.699900 0.308500 0.058197 204 204 204
0.615300 -0.330200 -0.033096 204 204 204
0.849600 0.450900 -0.181107 204 204 204
-0.135048 -0.243381 0.321729 204 204 204
0.124669 0.388519 -0.145876 204 204 204
0.374743 -0.002600 0.400360 255 255 0
-0.495114 0.115043 -0.373271 204 204 204
0.184817 0.416661 0.065155 204 204 204
0.103721 0.162675 0.370584 255 0 0
-0.444156 -0.075122 0.383843 204 204 204
-0.395310 0.292660 0.194009 204 204 204
0.707700 0.482450 0.076904 204 204 204
0.274862 -0.281687 -0.251789 204 204 204
-0.084877 -0.395715 -0.134607 204 204 204
0.835967 -0.297767 -0.065237 204 204 204
-0.144050 -0.169950 0.359452 204 204 204
0.434942 -0.204575 -0.303759 204 204 204
-0.843433 0.154200 0.294001 0 255 0
-0.626000 -0.470367 -0.101598 0 255 0
0.055429 -0.267152 -0.297487 204 204 204
-0.456367 0.346800 -0.035200 204 204 204
0.434190 -0.338170 -0.105078 204 204 204
-0.076439 -0.410817 0.054617 204 204 204
-0.145345 -0.188927 -0.369138 204 204 204
-0.564250 0.291200 -0.195225 204 204 204
-0.835200 0.170900 -0.321899 0 255 0
0.896200 -0.257900 -0.158798 204 204 204
-0.476267 0.280767 -0.231069 204 204 204
0.586600 -0.320700 0.120895 204 204 204
-0.384830 -0.426630 -0.154779 204 204 204
0.354871 0.075371 -0.392880 204 204 204
0.575900 -0.210700 0.301193 204 204 204
0.395055 0.285345 -0.316800 204 204 204
0.075140 0.402520 0.065315 204 204 204
0.876150 -0.218000 -0.227150 204 204 204
-0.526300 0.207220 0.277618 204 204 204
-0.755650 -0.135050 0.375549 0 255 0
-0.893200 -0.284500 0.342750 0 255 0
0.723800 -0.072300 0.380798 204 204 204
0.043820 0.349180 -0.207989 204 204 204
0.585783 -0.331250 0.073886 204 204 204
-0.384855 -0.344464 -0.284153 204 204 204
-0.513900 0.024425 0.372740 204 204 204
-0.897900 0.294850 -0.023201 0 255 0
-0.713900 0.197750 -0.298347 0 255 0
0.375093 -0.245693 -0.276211 204 204 204
-0.665150 -0.202850 0.361053 0 255 0
-0.415280 0.328060 0.116130 204 204 204
-0.784550 -0.478950 -0.133705 0 255 0
-0.575383 0.226267 -0.285566 204 204 204
0.164548 -0.203419 -0.332099 204 204 204
0.545450 0.450800 0.124199 204 204 204
0.593960 -0.282740 -0.184900 204 204 204
0.655500 0.120700 -0.360306 255 127 0
0.485150 -0.142325 -0.340999 204 204 204
-0.794750 -0.497900 -0.014801 0 255 0
-0.884233 -0.373233 0.282862 0 255 0
0.207800 0.420500 0.061295 204 204 204
-0.535586 0.304543 -0.174970 204 204 204
0.811600 0.468800 -0.137299 204 204 204
-0.365000 -0.306633 -0.317312 204 204 204
-0.961567 -0.094767 0.383133 204 204 204
0.473944 -0.005233 -0.284411 0 0 255
-0.817700 0.007100 0.381393 0 255 0
0.045119 0.306628 -0.265653 204 204 204
0.896700 0.135300 -0.381897 204 204 204
-0.658700 0.040100 0.360992 204 204 204
-0.523650 -0.305200 0.304622 204 204 204
0.535533 0.174867 0.388204 204 204 204
0.775700 0.285300 -0.335952 204 204 204
-0.275045 -0.084809 0.383763 204 204 204
0.467600 -0.349850 0.037697 204 204 204
0.804000 0.152500 0.410004 204 204 204
-0.828900 0.103400 -0.364105 0 255 0
0.375325 0.402238 0.183374 204 204 204
-0.863800 -0.505750 -0.004051 204 204 204
0.475400 -0.175650 0.338798 255 255 0
0.185116 0.165377 0.368381 255 255 0
0.682800 0.063600 0.409332 204 204 204
-0.720833 -0.486800 -0.005234 0 255 0
-0.406075 -0.361400 0.242451 204 204 204
0.505563 -0.282588 0.224573 255 255 0
-0.085254 -0.324797 0.244940 204 204 204
-0.144795 -0.352762 -0.234017 204 204 204
-0.155594 0.379465 -0.045652 204 204 204
0.355246 0.234415 -0.346331 204 204 204
0.426100 0.420100 0.160599 204 204 204
-0.375274 0.204674 -0.324091 204 204 204
-0.185091 -0.255268 -0.336570 204 204 204
1.003400 -0.177700 0.289398 204 204 204
0.325970 0.440620 -0.013860 204 204 204
-0.189600 0.249800 0.279495 204 204 204
0.753567 0.034633 -0.382233 204 204 204
-0.315314 0.265932 0.245414 204 204 204
0.474100 -0.096900 -0.357498 0 0 255
-0.912400 0.097000 -0.358704 0 255 0
-0.934050 -0.341550 0.312500 204 204 204
0.254877 -0.175335 0.345985 255 255 0
0.445011 0.084811 -0.391676 204 204 204
0.325094 -0.015100 0.397724 255 255 0
-0.781000 0.212600 0.242905 0 255 0
0.785650 -0.277000 -0.147346 204 204 204
0.534500 -0.190700 0.320694 255 255 0
-0.776767 0.302167 -0.084534 0 255 0
0.435113 0.445987 0.085215 204 204 204
-0.652367 -0.095833 -0.414602 204 204 204
-0.944750 -0.245750 0.361748 204 204 204
-0.126560 0.169420 -0.359521 204 204 204
-0.796333 -0.115167 0.381602 0 255 0
0.655840 -0.295460 -0.144321 204 204 204
0.075433 -0.219567 -0.329798 204 204 204
-0.804800 -0.274800 -0.374000 0 255 0
-0.435010 0.335740 0.084839 204 204 204
-0.645275 0.025175 0.365227 204 204 204
-0.043775 -0.379250 0.147724 204 204 204
-0.064604 0.381096 0.084718 204 204 204
-0.555367 -0.412267 0.192230 204 204 204
0.265093 0.347386 0.245840 255 255 0
0.074443 -0.272535 0.282982 204 204 204
0.736675 -0.223675 -0.243054 204 204 204
-0.696725 -0.365325 0.264572 0 255 0
-0.245510 0.298470 -0.238211 204 204 204
-0.575700 0.146467 0.319000 204 204 204
-0.014832 0.397732 -0.014468 204 204 204
-0.175255 0.378685 -0.015456 204 204 204
-0.485200 -0.419600 0.167702 204 204 204
0.024894 0.104976 0.377454 204 204 204
0.471479 -0.014521 -0.295650 0 0 255
-0.315011 -0.145133 -0.395355 204 204 204
0.174940 0.270740 -0.310663 204 204 204
0.464760 -0.349080 -0.034061 204 204 204
0.065364 0.408220 -0.005549 204 204 204
-0.918400 -0.498200 0.087006 204 204 204
0.804400 -0.227900 -0.225700 204 204 204
-0.314982 0.352235 0.075284 204 204 204
-0.392980 -0.449500 0.047083 204 204 204
-0.047200 -0.390525 0.123150 204 204 204
0.632650 -0.149150 -0.302750 0 0 255
-0.656075 0.301675 0.115051 204 204 204
-0.942400 -0.036700 -0.407806 204 204 204
0.035762 0.211485 -0.340508 204 204 204
0.745767 -0.307000 0.104436 204 204 204
0.974367 -0.152333 0.317596 204 204 204
-0.514588 0.265037 0.215563 204 204 204
-0.224489 0.291022 -0.251489 204 204 204
0.503725 -0.115400 -0.352499 204 204 204
-0.115085 -0.382669 -0.175140 204 204 204
0.785350 -0.290850 -0.112045 204 204 204
0.798000 0.341200 0.330994 204 204 204
0.644200 0.351700 -0.281295 204 204 204
-0.145134 0.335566 0.175352 204 204 204
-0.284479 -0.266493 -0.337858 204 204 204
-0.604900 0.304367 -0.154650 204 204 204
0.294700 -0.312208 0.213170 255 255 0
-0.025570 -0.316847 0.246094 204 204 204
0.088025 -0.389875 -0.077793 204 204 204
-0.636200 -0.324550 0.296047 0 255 0
0.475243 -0.346429 -0.044386 204 204 204
0.385450 -0.255964 0.276142 255 255 0
-0.015383 -0.004517 0.389862 204 204 204
-0.706300 -0.074100 -0.413030 0 255 0
0.746900 0.479000 -0.086304 204 204 204
-0.475289 0.064756 -0.393511 204 204 204
0.504460 -0.096740 -0.304678 0 0 255
0.055368 -0.158074 0.359284 204 204 204
0.025268 0.388424 -0.114673 204 204 204
0.095700 0.331582 -0.241498 204 204 204
0.734000 0.461600 -0.135066 204 204 204
0.315550 0.438617 0.025041 204 204 204
-0.294875 -0.115925 0.379131 204 204 204
0.374918 -0.203173 -0.312317 204 204 204
0.615500 -0.030000 -0.268997 0 0 255
-0.685020 -0.085320 0.380240 0 255 0
0.314565 0.115015 -0.386774 204 204 204
0.867200 0.421600 0.262207 204 204 204
0.074354 0.405758 0.044393 204 204 204
0.197600 -0.339650 0.178604 204 204 204
0.544500 0.176300 0.388565 204 204 204
0.145300 -0.239233 -0.309316 204 204 204
-0.684480 0.174300 -0.324262 204 204 204
-0.145417 0.372825 0.075371 204 204 204
-0.544620 -0.382880 -0.264899 204 204 204
0.134860 0.324823 -0.255307 204 204 204
-0.294682 -0.034977 0.386018 204 204 204
1.015300 -0.218100 0.236298 204 204 204
0.028950 -0.399950 0.078850 255 0 0
-0.405425 -0.104975 -0.407175 204 204 204
-0.525043 -0.387186 -0.255097 204 204 204
-0.164711 0.281022 0.251121 204 204 204
-0.274592 -0.436450 0.035858 204 204 204
-0.725167 -0.145033 -0.406001 0 255 0
-0.534900 -0.229800 -0.379555 204 204 204
-1.047200 0.230400 0.174500 204 204 204
0.244907 0.392340 0.164841 204 204 204
0.604275 0.295450 -0.323025 204 204 204
0.092725 -0.390375 -0.071449 204 204 204
-0.132600 -0.170300 0.360107 204 204 204
0.908600 0.507600 -0.025848 204 204 204
-0.274542 -0.387200 -0.205900 204 204 204
-0.974250 -0.272200 -0.382446 204 204 204
-0.354850 0.211050 -0.320648 204 204 204
0.265307 -0.137907 -0.358808 204 204 204
0.245031 -0.094909 -0.376373 204 204 204
-0.937200 0.108600 0.318893 204 204 204
0.724100 0.411100 -0.223549 204 204 204
-0.504633 -0.184267 -0.395699 204 204 204
0.395420 0.396450 -0.195160 204 204 204
-0.275143 0.187121 0.318379 204 204 204
-0.736000 -0.394050 0.234074 0 255 0
0.385513 0.296988 -0.307424 204 204 204
-0.564783 0.125067 -0.364769 204 204 204
0.772550 -0.300600 -0.084396 204 204 204
-0.574883 -0.334617 -0.316917 204 204 204
-0.676575 0.321400 -0.024525 204 204 204
-0.015337 0.164825 0.353040 204 204 204
-0.605150 -0.448275 -0.165100 204 204 204
-1.044200 0.242400 -0.182693 204 204 204
0.515883 -0.324350 0.136136 204 204 204
0.055175 0.400631 0.063830 204 204 204
0.674000 -0.324975 -0.005348 204 204 204
-0.776950 -0.347200 -0.327698 0 255 0
-0.494213 0.045687 0.368551 204 204 204
-0.334750 -0.445020 -0.055110 204 204 204
0.124820 -0.075016 0.387016 255 255 0
0.355000 -0.256379 0.276470 255 255 0
-0.493578 -0.035244 0.381765 204 204 204
0.792200 0.494300 0.066604 204 204 204
0.274829 -0.115352 0.374010 255 255 0
0.335344 0.064939 -0.393687 204 204 204
0.882100 0.056250 0.413849 204 204 204
0.705800 0.364225 -0.273998 204 204 204
0.715700 0.095733 -0.384267 255 127 0
-0.125268 -0.334879 -0.255187 204 204 204
-0.798200 -0.133900 0.367401 0 255 255
-0.197900 0.369800 0.059151 204 204 204
0.434975 0.420675 0.162403 204 204 204
-0.386014 0.298571 0.187330 204 204 204
0.354117 0.443600 -0.024948 204 204 204
-0.455644 -0.294633 -0.336344 204 204 204
-0.635100 0.123525 -0.362125 204 204 204
0.123867 -0.311200 -0.241391 204 204 204
0.629000 0.298700 0.339706 204 204 204
-0.544600 -0.455340 -0.124841 204 204 204
0.285319 -0.304648 0.224915 255 255 0
-0.183850 -0.379500 0.179100 204 204 204
0.564980 0.125960 0.401199 204 204 204
0.875700 0.074050 0.415649 204 204 204
0.214923 -0.266785 -0.276878 204 204 204
0.187567 -0.369633 -0.107600 204 204 204
-0.956250 0.084750 0.332099 204 204 204
-0.794800 -0.451850 -0.200852 0 255 0
-0.075280 -0.303646 -0.283828 204 204 204
-0.724200 0.226325 -0.265549 0 255 0
0.404688 0.435750 -0.105476 204 204 204
-0.344455 -0.403427 -0.194892 204 204 204
-0.677400 0.220700 -0.280502 204 204 204
0.265216 0.355768 0.235805 255 255 0
-0.234440 -0.319120 -0.288959 204 204 204
-0.358000 -0.450350 -0.005501 204 204 204
-0.504800 0.076875 -0.389405 204 204 204
-0.723000 -0.350700 -0.310898 0 255 0
-0.034883 0.223933 -0.332524 204 204 204
0.245100 -0.044817 -0.388259 204 204 204
-0.084956 0.387492 0.034696 204 204 204
-0.238450 0.369850 0.027497 204 204 204
0.234809 -0.354741 -0.134835 204 204 204
0.214861 -0.164965 0.352744 255 255 0
-0.126255 -0.191345 0.350474 204 204 204
-0.675240 -0.483420 -0.015198 0 255 0
0.014977 -0.125097 0.372694 204 204 204
0.837700 0.320000 0.350800 204 204 204
-0.305194 0.143706 0.341861 204 204 204
-0.725600 0.084867 -0.373950 0 255 0
-0.455271 -0.373043 0.233898 204 204 204
-0.866700 0.145700 -0.328903 0 255 0
-0.896250 -0.266100 0.351501 0 255 0
0.745100 -0.199600 -0.266800 204 204 204
0.175021 0.234896 0.332718 255 255 0
0.405525 -0.357617 0.005400 204 204 204
0.405867 0.201700 0.371033 255 255 0
-0.107500 0.279200 0.259796 204 204 204
0.794733 0.471800 0.156067 204 204 204
0.838700 0.493550 -0.066651 204 204 204
-0.735725 0.113575 0.321949 0 255 0
-0.635640 -0.393220 -0.264621 0 255 0
0.796100 0.417300 -0.224457 204 204 204
0.094428 0.237055 0.325902 255 255 0
0.094994 -0.174799 -0.352270 204 204 204
-0.125291 -0.413445 -0.084432 204 204 204
0.453875 -0.340975 0.101475 204 204 204
0.205036 -0.381605 -0.025214 204 204 204
-0.054800 -0.411376 -0.044459 204 204 204
-0.826550 -0.501250 -0.014396 0 255 0
0.194596 -0.313581 0.224981 255 255 0
0.115150 0.330350 0.240295 255 255 0
0.084908 -0.104970 0.377336 204 204 204
-0.484229 -0.346100 -0.296783 204 204 204
-0.774850 -0.494000 0.025650 0 255 0
-0.295429 0.363435 0.014684 204 204 204
0.544067 0.467767 0.025965 204 204 204
-0.025242 -0.302295 0.262425 204 204 204
0.304872 0.104939 0.393979 255 255 0
0.553650 0.336975 -0.287800 204 204 204
-0.026000 -0.100300 0.380295 204 204 204
-0.324808 -0.293900 -0.322886 204 204 204
-0.094944 0.254960 -0.305412 204 204 204
0.864300 0.406500 -0.245697 204 204 204
-0.104354 0.386127 -0.044599 204 204 204
-0.873600 -0.476567 0.135767 204 204 204
-0.555733 0.038067 -0.399465 204 204 204
0.313233 0.187850 0.369016 255 255 0
0.115014 0.368729 0.177355 204 204 204
0.335090 -0.215245 0.314560 255 255 0
-0.523688 0.337912 0.014974 204 204 204
0.014292 -0.204900 0.337276 204 204 204
0.214748 0.145522 0.378429 255 255 0
-0.455136 0.184136 -0.333574 204 204 204
-0.234644 -0.134933 0.373272 204 204 204
0.386033 -0.261000 0.271062 255 255 0
0.717800 -0.013600 0.400803 204 204 204
0.663980 -0.045460 0.391220 204 204 204
0.274818 0.154727 -0.376037 204 204 204
-0.695233 0.034633 0.362834 0 255 0
-0.654600 -0.303500 0.311996 0 255 0
0.116917 0.121133 0.380168 255 255 0
0.054262 -0.181879 -0.350624 204 204 204
0.574350 -0.311050 0.153274 204 204 204
0.474789 0.123311 -0.381722 255 127 0
-0.694700 -0.185900 -0.401203 0 255 0
-0.385357 0.186371 -0.337059 204 204 204
-0.856400 -0.472100 0.142700 0 255 0
-0.274967 -0.437708 0.025691 204 204 204
0.846150 -0.017250 0.398201 204 204 204
-0.615350 0.074917 -0.386233 204 204 204
0.545667 0.357233 -0.268133 204 204 204
0.965567 -0.225633 0.234670 204 204 204
-0.743300 -0.392150 0.236847 0 255 0
0.665550 0.465275 -0.103600 204 204 204
-0.404773 0.322182 -0.164846 204 204 204
-0.404329 0.162043 -0.351201 204 204 204
0.294533 -0.308433 0.218450 255 255 0
-0.204987 0.114153 0.361254 204 204 204
0.491700 -0.069000 -0.260696 0 0 255
0.673750 0.112050 -0.367302 255 127 0
0.444900 0.114957 -0.387456 255 127 0
-0.065134 -0.183175 0.351425 204 204 204
0.117114 -0.369471 0.128656 204 204 204
0.105517 0.350417 0.210968 204 204 204
-0.384667 0.024907 -0.404147 204 204 204
0.813550 0.362850 -0.284698 204 204 204
0.625600 0.255125 0.363926 204 204 204
-0.044955 0.134866 0.363854 204 204 204
-0.957600 -0.419700 -0.275803 204 204 204
-0.593400 -0.432300 0.161698 204 204 204
-0.235095 0.344900 -0.154709 204 204 204
-0.834900 -0.382500 -0.300095 0 255 0
0.674600 0.458900 0.147903 204 204 204
0.275015 -0.065144 -0.383300 204 204 204
0.726233 0.393633 -0.245504 204 204 204
0.495886 -0.237157 -0.266401 204 204 204
-0.495000 -0.392840 0.213479 204 204 204
0.565200 0.178500 0.389267 204 204 204
0.594820 0.155380 -0.346097 255 127 0
-0.154871 0.084918 0.373804 204 204 204
-0.794800 -0.461100 -0.182701 0 255 0
-0.414564 0.302409 0.173881 204 204 204
0.594540 -0.303260 0.166882 204 204 204
0.144706 -0.144859 -0.362531 204 204 204
-0.445300 -0.353529 -0.283242 204 204 204
0.174962 -0.175851 -0.347543 204 204 204
0.686225 -0.297675 0.155449 204 204 204
0.014744 -0.292488 -0.282288 204 204 204
0.415700 0.229200 0.359154 255 255 0
0.685833 0.465633 0.133932 204 204 204
0.045283 0.371672 0.153213 204 204 204
-0.716200 -0.160200 0.370697 0 255 0
-0.425442 0.054958 -0.396603 204 204 204
0.395442 -0.206633 -0.307383 204 204 204
0.747100 0.243800 0.380707 204 204 204
-0.576460 -0.194400 0.363742 204 204 204
-0.855000 -0.327550 -0.346451 0 255 0
-0.823600 -0.359900 -0.319504 0 255 0
0.134668 0.035141 0.394663 255 255 0
0.354433 -0.361300 0.055326 204 204 204
-0.374000 0.079900 -0.389893 204 204 204
-0.756700 0.180100 0.272095 0 255 0
0.485825 0.188325 -0.348599 255 127 0
-0.925425 0.165625 0.275528 0 255 0
0.753700 -0.297500 0.135198 204 204 204
0.624950 -0.190950 -0.291198 204 204 204
0.305618 0.437745 0.015500 204 204 204
0.224550 -0.250867 -0.291051 204 204 204
0.031400 -0.370775 -0.160622 204 204 204
0.835067 0.365333 0.316335 204 204 204
0.434650 0.411450 0.181297 204 204 204
0.554775 -0.167000 -0.318203 204 204 204
0.524350 0.462667 -0.045283 204 204 204
0.395275 0.418325 0.155226 204 204 204
0.214225 0.289550 -0.298874 204 204 204
-0.174890 0.378045 0.015604 204 204 204
0.940000 -0.293200 0.044601 204 204 204
0.555360 0.014280 -0.387201 204 204 204
-0.590600 0.260800 -0.240402 204 204 204
0.054930 0.316079 0.245457 204 204 204
-0.385033 -0.303233 -0.321686 204 204 204
0.454740 -0.178100 0.337781 255 255 0
0.374967 0.006117 0.401206 255 255 0
-0.844100 -0.284400 0.339600 0 255 0
-0.445433 0.322122 0.124775 204 204 204
0.224818 0.404565 -0.135411 204 204 204
-0.024898 0.265420 0.285927 204 204 204
0.614500 0.024733 0.404836 204 204 204
0.164813 -0.248875 0.298862 255 255 0
-0.224889 -0.245186 -0.346911 204 204 204
0.544967 0.224900 -0.326017 255 127 0
0.745500 -0.301867 0.124435 204 204 204
-0.114011 -0.359033 -0.218545 204 204 204
0.394800 -0.061150 0.390549 255 255 0
-1.045000 0.212350 0.204300 204 204 204
-0.503733 -0.331933 0.281937 204 204 204
-0.836800 -0.265150 0.348503 0 255 0
-0.955700 -0.498700 -0.135651 204 204 204
-0.826500 -0.385850 -0.295646 0 255 0
0.144529 -0.281636 -0.271392 204 204 204
-0.285380 0.327290 0.155580 204 204 204
0.665817 -0.277017 0.205050 204 204 204
-0.026847 0.389547 0.066703 204 204 204
-0.946200 0.227600 -0.229507 0 255 0
-0.185080 -0.305496 0.275947 204 204 204
0.773100 -0.202200 0.291199 204 204 204
0.304557 -0.188757 -0.328888 204 204 204
-0.158600 0.379800 -0.033722 204 204 204
0.424829 0.282357 -0.321557 204 204 204
-0.043525 0.340025 0.191128 204 204 204
0.919300 0.511200 0.039307 204 204 204
0.235440 0.212230 0.351511 255 255 0
-0.573567 -0.127833 -0.409632 204 204 204
-0.374286 -0.227843 -0.368742 204 204 204
0.014497 0.353200 -0.194870 204 204 204
-0.555880 -0.417100 0.184158 204 204 204
0.666450 0.383300 0.271545 204 204 204
-0.534767 -0.382600 -0.262436 204 204 204
1.004700 -0.105100 -0.314499 204 204 204
0.793800 -0.146400 0.337151 204 204 204
0.064884 -0.157776 0.359005 204 204 204
-0.035389 -0.290556 -0.290956 204 204 204
0.774500 -0.305250 -0.063950 204 204 204
0.074672 -0.045248 0.389442 204 204 204
0.034667 -0.294676 0.264904 204 204 204
-1.007350 -0.055900 -0.409401 204 204 204
-0.647500 0.116900 0.328949 204 204 204
0.882750 -0.015550 -0.365548 204 204 204
0.356083 -0.363742 0.025875 204 204 204
-0.415450 0.209050 0.288998 204 204 204
-0.524667 -0.469283 -0.016334 204 204 204
0.656100 0.319600 -0.308197 204 204 204
-0.812725 -0.104275 0.384853 0 255 0
-0.488500 0.279500 -0.229996 204 204 204
0.314525 -0.367269 0.034900 204 204 204
-0.585633 0.125533 -0.363134 204 204 204
-0.535433 -0.435317 0.145917 204 204 204
0.504043 -0.183214 -0.312858 204 204 204
0.445040 0.411840 0.183240 204 204 204
0.234724 -0.361588 0.114258 204 204 204
0.614400 -0.227550 -0.256635 204 204 204
0.694650 -0.065125 0.384052 204 204 204
0.465575 0.238075 0.358902 255 255 0
0.526000 -0.087625 0.378952 204 204 204
-0.807500 -0.148800 0.305099 0 255 255
0.564400 0.348000 -0.278801 204 204 204
-0.332800 -0.439233 -0.088669 204 204 204
0.663000 0.307467 0.337667 204 204 204
0.234731 -0.117808 -0.369206 204 204 204
-0.325063 -0.252800 -0.351275 204 204 204
-0.583814 -0.045300 0.381217 204 204 204
-0.404620 0.136400 0.338259 204 204 204
-0.754150 0.233325 0.212727 0 255 0
-0.802767 -0.155133 -0.412270 0 255 0
-0.124178 -0.415094 -0.075278 204 204 204
0.404070 0.104900 0.398491 255 255 0
-0.790200 0.307300 -0.042099 0 255 0
-0.394430 -0.166340 0.368571 204 204 204
-0.444714 0.216900 -0.307301 204 204 204
0.235161 -0.075197 -0.382394 204 204 204
0.877800 0.482600 0.156006 204 204 204
-0.154279 -0.337458 -0.256568 204 204 204
-0.855600 0.303500 0.082947 0 255 0
0.932200 0.388800 0.307602 204 204 204
-0.911200 -0.507800 -0.072403 204 204 204
0.175878 0.400722 0.122479 204 204 204
0.325709 0.439136 0.034826 204 204 204
0.464186 0.456471 0.045443 204 204 204
0.425190 -0.296640 0.214679 255 255 0
0.945100 -0.291900 -0.015999 204 204 204
0.484460 -0.093660 -0.314258 0 0 255
-0.793400 0.176350 -0.303199 0 255 0
-0.324017 -0.108533 0.379646 204 204 204
-1.014700 0.228900 -0.214996 204 204 204
-0.165087 -0.235455 -0.346905 204 204 204
-0.594200 0.271567 0.191834 204 204 204
0.585800 -0.303683 -0.145114 204 204 204
-0.444330 0.334720 0.085539 204 204 204
-0.255028 0.164803 0.333273 204 204 204
-0.675300 -0.449800 -0.177002 0 255 0
0.124980 -0.337408 0.195604 204 204 204
0.485467 0.441967 0.125700 204 204 204
0.223267 -0.200867 0.330434 255 255 0
-0.954300 0.088000 -0.361404 204 204 204
-0.736800 -0.410600 0.213699 0 255 0
0.414225 0.044963 0.403624 255 255 0
0.346600 0.319500 0.289902 255 255 0
-0.596250 -0.451600 -0.153648 204 204 204
-0.435092 -0.285025 0.313376 204 204 204
-0.346175 0.289175 -0.238796 204 204 204
0.628000 -0.048700 -0.259201 0 0 255
-0.973300 -0.144967 0.382167 204 204 204
0.914900 0.387300 0.307007 204 204 204
0.475450 -0.097133 0.378965 255 255 0
-0.304925 -0.397792 -0.195201 204 204 204
-0.214950 -0.379217 -0.208283 204 204 204
-0.543600 0.240600 0.240707 204 204 204
-0.652500 -0.391700 0.233101 0 255 0
-0.894100 0.257050 0.154496 0 255 0
0.577350 -0.091900 -0.238754 0 0 255
0.334969 0.065892 0.399531 255 255 0
0.784000 0.435600 0.225899 204 204 204
0.135023 -0.367519 -0.134921 204 204 204
-0.145050 0.320617 0.200918 204 204 204
0.125105 0.044946 0.394221 255 255 0
0.916700 -0.184700 0.293503 204 204 204
0.475513 -0.154713 0.351972 255 255 0
0.094800 -0.107550 0.380401 204 204 204
0.275018 0.431236 0.045389 204 204 204
-0.842367 -0.501333 -0.055232 0 255 0
0.902550 -0.024300 0.394845 204 204 204
0.766333 -0.186133 0.307566 204 204 204
-1.015900 0.086400 0.327194 204 204 204
-0.633967 0.174917 0.294182 204 204 204
-0.015300 -0.340100 0.220901 255 0 0
0.914050 0.007300 0.404251 204 204 204
-0.857850 -0.042700 0.379250 0 255 0
0.980750 -0.287150 -0.015503 204 204 204
0.154820 0.136923 -0.378263 204 204 204
-0.748300 0.097400 0.329102 0 255 0
0.723450 0.487850 -0.024354 204 204 204
-0.756467 0.105433 0.325597 0 255 0
-0.664275 -0.215375 0.356651 0 255 0
0.045295 -0.033277 0.390435 204 204 204
-0.564267 -0.391600 0.222768 204 204 204
0.364592 -0.324762 -0.165226 204 204 204
-0.085332 -0.214037 -0.352315 204 204 204
0.453850 0.400150 -0.200455 204 204 204
-0.194182 -0.405759 0.125006 204 204 204
0.404663 0.353088 0.262936 255 255 0
-0.034921 0.044857 0.387168 204 204 204
-0.684850 0.317750 -0.064904 204 204 204
-0.654820 0.244140 -0.255359 204 204 204
-0.164940 -0.420913 0.053607 204 204 204
-0.293925 -0.437600 0.045157 204 204 204
-0.208025 -0.430550 -0.042572 204 204 204
0.284020 0.369260 0.217697 255 255 0
0.203867 -0.320983 -0.211151 204 204 204
0.058300 -0.399775 0.005875 204 204 204
0.108200 -0.379600 0.099106 204 204 204
-0.075745 0.358620 0.147142 204 204 204
0.525280 0.444260 0.135260 204 204 204
0.354206 0.024822 -0.394158 204 204 204
-0.525712 0.224287 -0.294098 204 204 204
0.694520 -0.316220 -0.056479 204 204 204
0.154233 -0.270617 -0.280950 204 204 204
0.325150 -0.121733 0.370985 255 255 0
0.921300 0.374700 0.319199 204 204 204
0.565000 -0.043450 -0.261650 0 0 255
-0.165269 0.218006 -0.328573 204 204 204
-0.235100 -0.368967 0.208069 204 204 204
-0.794600 -0.284600 0.337501 0 255 0
0.997450 -0.194150 -0.236152 204 204 204
0.523960 -0.267180 0.246100 255 255 0
-0.194943 0.324282 0.184926 204 204 204
-0.104304 0.385104 0.035088 204 204 204
0.394462 -0.321763 -0.163412 204 204 204
-0.663920 0.104400 0.333521 204 204 204
0.913800 0.407500 0.286499 204 204 204
-0.404750 0.284958 0.204615 204 204 204
-0.475867 -0.402667 -0.224368 204 204 204
0.483833 0.460783 0.016032 204 204 204
-0.475133 0.176933 -0.337934 204 204 204
-0.212900 -0.419533 0.088836 204 204 204
-0.715880 0.035800 0.361420 0 255 0
-0.605567 0.295933 -0.176048 204 204 204
0.065439 -0.288261 0.268222 204 204 204
0.477567 0.460367 -0.004303 204 204 204
0.044664 -0.400609 0.024055 204 204 204
-0.724133 -0.416400 0.205704 0 255 0
0.637150 -0.084600 -0.240997 0 0 255
-0.485533 0.236108 0.255540 204 204 204
-0.134935 0.125170 -0.377870 204 204 204
0.175750 -0.379433 0.066592 204 204 204
0.993100 -0.183800 0.284050 204 204 204
0.154250 -0.131213 0.370703 255 255 0
-0.327875 0.081700 -0.390652 204 204 204
-0.454918 0.034936 0.373700 204 204 204
0.084925 -0.392289 -0.064666 204 204 204
0.154612 0.418444 -0.025194 204 204 204
0.383983 -0.360217 0.024015 204 204 204
-1.062900 0.267800 0.073196 204 204 204
0.935400 -0.085233 0.367131 204 204 204
0.024884 0.036756 0.389775 204 204 204
-0.534880 -0.176240 -0.398462 204 204 204
-0.805700 0.179400 0.282898 0 255 0
0.685900 -0.248600 -0.218002 204 204 204
0.184979 -0.343969 -0.175115 204 204 204
0.064878 0.154934 0.363507 204 204 204
0.919000 0.459000 -0.178604 204 204 204
0.004960 -0.286397 0.275699 204 204 204
0.425155 -0.045145 -0.382120 204 204 204
0.756167 0.214267 0.392700 204 204 204
0.084487 0.384696 -0.144390 204 204 204
0.424250 0.439800 -0.099006 204 204 204
0.129900 -0.130000 -0.365997 204 204 204
-0.284262 -0.419125 0.116549 204 204 204
-0.723950 0.221250 -0.271949 0 255 0
0.745333 -0.316400 0.034897 204 204 204
-0.045125 -0.355156 0.195285 204 204 204
-0.075452 0.358386 -0.166005 204 204 204
0.565817 0.174683 -0.337301 255 127 0
-0.485517 -0.446483 0.104599 204 204 204
0.744200 0.441700 0.205750 204 204 204
0.075310 0.212871 -0.342034 204 204 204
0.465550 0.450475 0.084724 204 204 204
0.634500 0.457667 0.137467 204 204 204
-0.773350 0.288100 -0.145699 0 255 0
-0.367200 -0.350700 0.251350 204 204 204
0.234797 -0.284736 -0.254752 204 204 204
-0.005250 0.388200 0.084947 204 204 204
-0.165012 0.316097 -0.224953 204 204 204
-0.184640 0.360780 0.103331 204 204 204
-0.564820 -0.345720 -0.306277 204 204 204
0.035562 0.370900 0.152091 204 204 204
-0.073200 -0.309850 0.259498 204 204 204
-0.175338 -0.391769 -0.173017 204 204 204
0.525113 0.214700 0.373413 204 204 204
-0.456686 -0.455486 0.055285 204 204 204
0.235315 0.357538 -0.226870 204 204 204
-0.187500 0.198550 0.319695 204 204 204
-0.094840 0.387364 0.024913 204 204 204
0.742900 -0.252650 0.231849 204 204 204
-0.365085 0.346962 0.074692 204 204 204
-0.075368 0.387412 0.044502 204 204 204
0.973050 -0.289350 0.004402 204 204 204
-0.800300 0.280000 -0.162506 0 255 0
0.563567 0.419133 -0.187098 204 204 204
0.731900 0.096067 0.411733 204 204 204
0.574375 0.075075 0.406223 204 204 204
-0.005082 0.244502 0.305673 204 204 204
0.704033 0.273867 0.363062 204 204 204
0.593975 0.322325 -0.303802 204 204 204
0.477250 0.169300 -0.359451 255 127 0
0.235594 -0.377472 0.035171 204 204 204
0.815950 0.272850 -0.344055 204 204 204
-0.838600 0.176200 -0.309601 0 255 0
-0.894500 0.272650 0.116806 0 255 0
-0.105087 0.095005 0.373061 204 204 204
0.907250 -0.297650 0.035248 204 204 204
0.623800 -0.311133 -0.113831 204 204 204
0.124680 -0.153250 0.361340 255 255 0
-0.355000 -0.084553 -0.408161 204 204 204
0.305311 0.172256 -0.371046 204 204 204
0.635720 -0.308620 0.143521 204 204 204
0.714600 -0.246200 0.244919 204 204 204
-0.331650 0.360050 -0.005402 204 204 204
-0.695925 -0.006125 0.373325 0 255 0
-0.326500 -0.419500 0.129501 204 204 204
-0.434871 0.154914 0.325835 204 204 204
-0.543971 0.074857 -0.388443 204 204 204
-0.654533 -0.468000 -0.123835 0 255 0
-0.415717 0.288267 0.197350 204 204 204
0.814500 0.152100 0.410545 204 204 204
-1.040500 0.078400 0.330704 204 204 204
0.174637 0.137906 -0.378918 204 204 204
-0.174792 0.044885 0.381663 204 204 204
0.515375 0.464375 0.026226 204 204 204
-0.656100 -0.091600 0.380005 204 204 204
-0.859100 -0.125500 -0.414098 0 255 0
-0.056747 0.389468 0.045347 204 204 204
0.277150 0.201325 0.360401 255 255 0
0.014629 -0.394939 -0.094826 204 204 204
-0.947400 0.109600 0.317505 204 204 204
-0.354673 -0.386745 -0.225671 204 204 204
-0.705875 -0.182975 -0.400902 0 255 0
0.385329 0.274800 -0.323702 204 204 204
0.215414 0.137693 -0.379006 204 204 204
-0.314852 0.055010 0.374127 204 204 204
0.306733 -0.319367 -0.189067 204 204 204
0.681700 -0.170200 -0.301193 204 204 204
0.805600 0.490600 -0.064407 204 204 204
-0.021900 0.120240 0.370621 204 204 204
0.753450 0.467300 0.155304 204 204 204
0.235406 -0.376331 0.044782 204 204 204
0.554600 -0.316250 -0.125234 204 204 204
-0.745075 0.275050 -0.184773 0 255 0
-0.161450 -0.299400 0.278801 204 204 204
-0.846500 -0.430500 0.214493 0 255 0
-0.956000 -0.264400 0.354851 204 204 204
0.905100 0.442350 -0.203506 204 204 204
0.274756 -0.332106 -0.174547 204 204 204
0.979700 -0.140100 -0.291901 204 204 204
0.854800 0.492700 0.114349 204 204 204
-0.134745 -0.407209 -0.114969 204 204 204
0.524725 -0.224638 0.294374 255 255 0
0.524500 -0.303700 -0.164602 204 204 204
0.654567 -0.320733 -0.063131 204 204 204
0.845900 0.474250 0.166451 204 204 204
0.627000 -0.209200 0.298004 204 204 204
0.515300 0.461533 -0.045502 204 204 204
-0.764067 0.305200 -0.074905 0 255 0
-0.883000 0.258050 -0.186500 0 255 0
-0.084656 0.261694 0.282466 204 204 204
-0.455057 -0.214457 -0.381446 204 204 204
0.595550 0.145200 -0.349300 255 127 0
0.254892 0.237142 -0.338567 204 204 204
0.475290 0.145040 -0.372440 255 127 0
0.635400 -0.328280 0.056201 204 204 204
-0.725750 0.300950 -0.122551 0 255 0
-0.594400 0.044857 0.364513 204 204 204
0.095042 -0.235962 -0.317036 204 204 204
0.902700 0.122300 -0.382698 204 204 204
-0.923300 0.286350 0.054344 0 255 0
-0.736800 -0.154400 -0.403000 0 255 0
-0.475133 0.342783 -0.054632 204 204 204
-0.024343 -0.160314 0.360217 204 204 204
-0.554400 0.330300 0.042099 204 204 204
0.094947 -0.224871 -0.325012 204 204 204
-0.074940 0.384260 0.064291 204 204 204
0.675000 -0.289000 0.177994 204 204 204
-0.774867 -0.442300 0.185003 0 255 0
-0.969600 0.280000 0.062195 204 204 204
-0.494660 -0.168220 0.369043 204 204 204
0.684360 0.014540 0.404801 204 204 204
0.094963 0.401350 -0.094209 204 204 204
0.103022 -0.390400 0.052168 204 204 204
0.344693 0.184921 -0.368086 204 204 204
-0.704920 0.246420 -0.243619 0 255 0
-0.854000 -0.496650 0.063698 0 255 0
0.833433 0.403833 -0.244970 204 204 204
0.314742 0.096717 -0.389576 204 204 204
-0.744325 0.004675 0.365322 0 255 0
0.085369 -0.196690 0.338323 204 204 204
0.495457 -0.146071 -0.338013 204 204 204
0.115128 -0.084911 0.385014 255 255 0
0.444933 -0.258667 -0.249064 204 204 204
0.790000 0.427700 -0.209000 204 204 204
-0.640100 0.152600 0.310104 204 204 204
-0.615640 -0.313980 0.302240 204 204 204
0.653875 -0.263625 -0.203274 204 204 204
-0.264933 0.246322 -0.297482 204 204 204
-0.286183 0.349050 0.098200 204 204 204
0.813833 0.194533 -0.372467 204 204 204
0.715050 -0.276800 -0.165497 204 204 204
-0.634450 -0.404200 0.215176 204 204 204
0.024974 0.245687 -0.317481 204 204 204
0.624583 -0.325867 -0.053948 204 204 204
0.124729 0.408848 0.065611 204 204 204
-0.770000 -0.418300 -0.253601 0 255 0
0.125329 -0.103900 0.380503 255 255 0
-1.028100 0.268150 -0.116745 204 204 204
-0.284647 0.207107 -0.327948 204 204 204
-0.845067 0.054933 0.352498 0 255 0
0.874900 -0.076150 0.374848 204 204 204
0.404875 -0.353333 -0.055874 204 204 204
0.054761 -0.272645 -0.292687 204 204 204
0.555320 -0.216820 0.296658 204 204 204
0.545511 -0.313567 -0.135222 204 204 204
-0.144865 -0.276783 0.297134 204 204 204
-0.205517 -0.233865 -0.352239 204 204 204
-0.304760 -0.054880 0.385664 204 204 204
0.325622 0.421033 -0.124044 204 204 204
-0.634500 0.156840 0.307382 204 204 204
0.805950 -0.279150 -0.137146 204 204 204
0.504400 0.244986 0.357557 204 204 204
-0.425467 0.290833 -0.220769 204 204 204
0.465600 0.182880 0.381677 255 255 0
-0.335189 0.044883 0.375728 204 204 204
0.262367 -0.330633 0.180862 204 204 204
0.084933 0.199067 -0.349599 204 204 204
0.285500 -0.279040 0.258542 255 255 0
-0.165611 -0.390656 -0.172467 204 204 204
0.445111 0.205256 0.372265 255 255 0
-0.414050 -0.425925 -0.164511 204 204 204
0.765333 0.465333 0.164734 204 204 204
-0.245127 0.346609 0.124832 204 204 204
0.075068 -0.306848 0.246155 204 204 204
0.324607 0.345493 -0.255428 204 204 204
0.304683 -0.292317 -0.232477 204 204 204
-0.436700 -0.120000 0.379395 204 204 204
-0.255531 0.368825 -0.035449 204 204 204
-0.524900 -0.438600 0.137397 204 204 204
-0.184887 -0.411350 0.104808 204 204 204
-0.808900 -0.137700 0.375900 0 255 255
0.496100 -0.329267 0.128097 204 204 204
-0.673560 0.196020 -0.306058 204 204 204
-0.436540 0.006200 0.379541 204 204 204
-0.534711 0.184489 0.295490 204 204 204
-0.624500 0.261960 -0.234201 204 204 204
0.263980 -0.374875 0.004776 204 204 204
0.174719 0.387171 -0.164947 204 204 204
-0.112875 0.370425 -0.122524 204 204 204
0.424567 -0.239133 0.288701 255 255 0
-0.355000 -0.401450 -0.201252 204 204 204
0.086221 -0.228193 0.318201 204 204 204
0.701700 0.350700 0.310394 204 204 204
0.235313 -0.306983 -0.225725 204 204 204
-0.214805 0.373955 -0.005527 204 204 204
-0.124637 0.292492 0.243270 204 204 204
0.535383 -0.094417 -0.275133 0 0 255
-0.636500 -0.439200 0.158401 0 255 0
-0.304443 -0.005186 -0.407252 204 204 204
-0.752600 0.147500 0.298096 0 255 0
-0.064841 -0.287732 -0.297947 204 204 204
-0.544750 -0.175617 -0.398834 204 204 204
-0.936800 -0.421100 -0.271301 204 204 204
-0.696080 0.312200 -0.086160 204 204 204
-0.475350 0.140600 -0.360703 204 204 204
0.565267 0.388400 0.246531 204 204 204
-0.365164 0.322329 -0.174800 204 204 204
0.205089 -0.241578 -0.300510 204 204 204
0.215100 0.229700 -0.339706 204 204 204
0.715450 0.286600 0.357154 204 204 204
0.378300 -0.359800 0.039200 204 204 204
-0.035837 -0.178368 -0.362742 204 204 204
0.494720 -0.311440 0.173480 204 204 204
-0.692900 0.251000 0.201996 204 204 204
0.324525 -0.321238 -0.182251 204 204 204
-0.274709 -0.361955 0.223382 204 204 204
-0.634925 -0.468625 -0.114651 0 255 0
-0.104985 0.084953 0.375809 204 204 204
0.875800 -0.265400 0.183899 204 204 204
0.314927 0.438709 -0.025508 204 204 204
0.525300 0.376017 0.254799 204 204 204
0.624167 0.313633 -0.311864 204 204 204
-0.215081 -0.045258 0.386366 204 204 204
0.406650 0.291000 0.320251 255 255 0
-0.105227 0.233315 -0.322347 204 204 204
0.074709 -0.343359 0.194365 204 204 204
-0.304300 0.290150 -0.240799 204 204 204
0.455000 -0.066200 0.388727 255 255 0
-0.275016 -0.305942 -0.305940 204 204 204
0.484500 -0.232967 0.292201 255 255 0
0.041300 -0.230300 0.320297 204 204 204
-0.335267 0.165822 0.327224 204 204 204
0.055150 0.270317 -0.300433 204 204 204
0.996100 -0.036600 -0.351105 204 204 204
0.065108 -0.383912 -0.114553 204 204 204
0.224915 0.415138 0.094979 204 204 204
-0.705350 0.246775 0.206825 204 204 204
0.194830 -0.306137 -0.235227 204 204 204
0.305033 -0.369408 0.015001 204 204 204
0.304400 0.119900 0.389801 255 255 0
0.275091 -0.244596 0.294947 255 255 0
0.726350 -0.178350 -0.288948 204 204 204
0.484913 -0.307400 0.184627 204 204 204
-0.857750 -0.466850 0.154701 0 255 0
-0.175200 -0.417992 0.075161 204 204 204
0.415236 0.334045 0.284518 255 255 0
-0.425800 0.185107 -0.335178 204 204 204
0.016040 -0.099250 0.379617 204 204 204
-0.575300 0.070100 -0.390701 204 204 204
0.905200 -0.143100 0.331604 204 204 204
-0.125021 0.313515 0.215038 204 204 204
0.155000 -0.065300 0.388756 255 255 0
0.204740 -0.230860 0.310782 255 255 0
0.685033 0.285133 -0.332367 204 204 204
1.004000 -0.202900 -0.224304 204 204 204
-0.645517 0.155200 0.306900 204 204 204
0.434825 0.155625 0.388338 255 255 0
0.475940 0.447660 -0.095282 204 204 204
-0.977250 -0.257100 -0.388451 204 204 204
-0.672567 0.207500 0.257095 204 204 204
-0.175422 -0.294556 0.284585 204 204 204
0.204920 0.162820 -0.371350 204 204 204
-0.144922 -0.054761 0.386922 204 204 204
-0.415333 -0.187667 -0.388433 204 204 204
0.505013 0.055738 0.404226 204 204 204
-0.284884 0.054856 0.375267 204 204 204
-0.904800 -0.508950 -0.054199 204 204 204
0.755367 0.356600 0.313401 204 204 204
0.155053 0.074792 0.391137 255 255 0
0.565500 0.034786 0.405574 204 204 204
0.304839 0.125022 -0.384538 204 204 204
0.993650 -0.285600 -0.015297 204 204 204
0.045143 0.254870 0.303883 204 204 204
-0.535750 0.335575 0.024385 204 204 204
-0.394100 0.331000 0.120102 204 204 204
0.485800 -0.268375 0.248497 255 255 0
0.496400 0.454167 -0.075684 204 204 204
0.754050 -0.316150 0.025451 204 204 204
0.674875 -0.125825 0.356373 204 204 204
-0.062350 -0.369800 -0.189346 204 204 204
-0.745117 -0.035700 -0.404065 0 255 0
-0.896350 -0.436800 -0.245452 204 204 204
-0.114959 0.152366 0.351099 204 204 204
0.756000 0.264600 0.372650 204 204 204
0.852000 -0.220600 0.260803 204 204 204
0.443820 -0.262020 0.262381 255 255 0
0.154665 0.044910 0.394296 255 255 0
0.334833 0.436433 0.065555 204 204 204
-0.365150 0.350650 -0.082568 204 204 204
0.464150 -0.248925 -0.257877 204 204 204
-0.184808 0.211885 -0.331325 204 204 204
-0.782933 0.152867 -0.322866 0 255 0
0.352700 -0.300500 -0.210998 204 204 204
0.744767 0.436133 0.215332 204 204 204
-0.769900 -0.423200 -0.249298 0 255 0
0.154792 -0.015166 0.394790 255 255 0
0.474527 0.044364 0.405365 255 255 0
-0.975300 -0.196000 0.343704 0 255 255
-0.405215 -0.003746 -0.407784 204 204 204
-0.454856 0.292500 0.184457 204 204 204
-0.154482 -0.318200 -0.278610 204 204 204
-0.753400 -0.253167 0.341970 0 255 0
0.857900 0.154700 0.412597 204 204 204
-0.164540 0.302540 0.224332 204 204 204
-0.907100 -0.427700 0.227798 204 204 204
0.983500 -0.060500 -0.341202 204 204 204
0.917100 0.470600 0.195206 204 204 204
0.645000 -0.215400 -0.265518 204 204 204
0.615483 -0.324100 0.095083 204 204 204
0.124415 -0.292838 -0.262578 204 204 204
-0.744620 0.225180 0.225400 0 255 0
-0.824300 -0.385600 0.264549 0 255 0
-0.505243 -0.377271 -0.265200 204 204 204
-0.134042 -0.419550 -0.056001 204 204 204
-0.762400 -0.500700 -0.052994 0 255 0
0.834700 -0.306050 0.034951 204 204 204
-1.050400 0.250300 -0.162399 204 204 204
-0.104665 -0.156781 -0.376985 204 204 204
-0.126829 0.380743 0.051843 204 204 204
0.005353 -0.314364 0.245218 204 204 204
-0.354320 -0.293430 0.302530 204 204 204
0.612900 -0.229500 0.279404 204 204 204
-0.444782 0.303564 -0.195282 204 204 204
0.584500 0.316775 -0.307125 204 204 204
0.535125 0.227300 0.368527 204 204 204
-0.454840 0.312500 0.145329 204 204 204
-0.917700 -0.123850 0.383400 204 204 204
-0.864000 -0.356700 -0.326202 0 255 0
0.645100 -0.134180 0.352918 204 204 204
0.054862 -0.293428 0.263969 204 204 204
-0.435570 0.014240 0.378500 204 204 204
0.664167 0.468100 0.115763 204 204 204
-0.545050 0.290450 -0.201149 204 204 204
0.465167 -0.311300 0.181467 204 204 204
-0.903300 0.196200 -0.276596 0 255 0
-0.857100 -0.253550 0.354797 0 255 0
0.367950 0.088800 0.399749 255 255 0
-0.545100 -0.287100 0.318832 204 204 204
-0.573640 -0.015880 0.378622 204 204 204
0.495875 0.055250 -0.392803 204 204 204
-1.039500 0.123200 0.300903 204 204 204
0.086456 0.410494 -0.014557 204 204 204
0.614900 -0.074620 0.382242 204 204 204
0.285269 0.333231 -0.263731 204 204 204
0.124917 -0.215517 0.326327 255 255 0
-0.315020 0.145400 -0.364259 204 204 204
0.493737 0.264950 -0.337362 204 204 204
-0.790900 -0.311100 -0.352707 0 255 0
-0.165148 -0.304336 -0.294298 204 204 204
-0.125396 0.377208 -0.085621 204 204 204
-0.224975 -0.235008 -0.353143 204 204 204
0.455980 -0.024820 -0.385690 204 204 204
0.134940 -0.156224 -0.358321 204 204 204
-0.044993 0.284214 0.265020 204 204 204
0.725750 0.451800 0.181351 204 204 204
0.324718 -0.277600 0.256525 255 255 0
0.184878 -0.183933 -0.342516 204 204 204
0.434650 0.215183 -0.342140 255 127 0
-0.495520 -0.266100 0.328442 204 204 204
-0.556040 -0.225080 0.351779 204 204 204
-0.085518 -0.172909 -0.371149 204 204 204
-0.304977 0.291985 0.213161 204 204 204
0.873700 0.304633 0.363271 204 204 204
0.044908 0.216154 -0.338170 204 204 204
0.865300 0.493250 0.116096 204 204 204
0.725467 -0.311300 -0.064301 204 204 204
0.235169 0.427238 0.035251 204 204 204
1.011400 -0.201300 0.261093 204 204 204
0.406233 -0.188633 -0.318970 204 204 204
-0.711600 -0.485700 -0.005468 0 255 0
-0.814500 -0.138700 0.008896 0 255 255
0.705250 0.442400 0.195046 204 204 204
-0.073764 0.380609 -0.101374 204 204 204
0.434967 0.425678 -0.145579 204 204 204
0.695150 -0.268000 -0.186699 204 204 204
-0.395450 0.180050 -0.340454 204 204 204
0.394600 -0.277600 0.247857 255 255 0
0.205309 -0.336204 0.184708 255 255 0
-0.565114 -0.234086 0.348201 204 204 204
-0.854267 -0.004900 -0.403000 0 255 0
0.285577 -0.157962 -0.348292 204 204 204
0.255129 -0.375371 0.024590 204 204 204
0.234133 -0.378733 -0.005514 204 204 204
0.344464 0.045427 0.402064 255 255 0
0.344450 0.440725 -0.044415 204 204 204
0.291586 -0.370557 -0.025018 204 204 204
0.035522 0.396896 -0.084672 204 204 204
-0.845700 0.002100 0.370193 0 255 0
0.144965 -0.382965 0.064917 204 204 204
-0.952150 -0.476700 0.155053 204 204 204
-0.046320 0.389620 -0.068463 204 204 204
0.624150 0.162300 -0.341255 255 127 0
0.485567 0.277867 -0.328995 204 204 204
-0.162500 0.230400 0.300095 204 204 204
0.774000 0.323400 -0.312393 204 204 204
-0.314962 0.360885 -0.045386 204 204 204
0.555167 -0.124267 0.362383 204 204 204
-0.145036 -0.125024 0.374818 204 204 204
-0.675175 -0.183925 -0.402275 0 255 0
0.004861 -0.014819 0.391011 204 204 204
0.555629 -0.246743 0.265185 204 204 204
-0.689100 0.309900 -0.107407 204 204 204
-0.425536 0.344909 -0.075656 204 204 204
-0.055284 -0.361600 -0.202995 204 204 204
0.755000 -0.035100 0.394024 204 204 204
-0.342400 -0.389400 -0.219193 204 204 204
0.384617 0.440867 -0.074967 204 204 204
0.733500 -0.310550 -0.062599 204 204 204
-0.779800 -0.328600 -0.345596 0 255 0
0.645000 0.166175 0.397430 204 204 204
0.596800 0.307450 0.328804 204 204 204
0.174605 -0.371421 0.104181 204 204 204
0.144787 0.174489 0.364640 255 255 0
0.495278 -0.045233 0.392946 255 255 0
0.074736 0.025190 0.392451 204 204 204
0.225459 0.387418 -0.175011 204 204 204
-0.125233 -0.308025 0.268148 204 204 204
0.146850 0.370850 0.181549 204 204 204
0.376500 0.221650 0.360604 255 255 0
0.485280 -0.044980 0.393912 255 255 0
-0.946300 -0.254650 -0.388649 204 204 204
-0.335125 0.114981 -0.378143 204 204 204
0.912450 0.015400 -0.372749 204 204 204
-0.433614 -0.443571 0.094587 204 204 204
0.344540 -0.055273 0.391222 255 255 0
0.294640 0.303653 -0.293749 204 204 204
-0.832100 -0.172500 -0.408493 0 255 0
-0.456080 -0.398080 -0.227280 204 204 204
0.837633 0.174833 0.408167 204 204 204
-0.104931 0.255204 0.284702 204 204 204
-0.565340 0.321040 0.083301 204 204 204
0.174927 0.155086 0.371551 255 255 0
-0.414425 0.272138 0.222487 204 204 204
0.504889 -0.064989 0.387080 255 255 0
-0.525433 0.238600 -0.278600 204 204 204
