ply
format ascii 1.0
element vertex 1300
property float x
property float y
property float z
property uchar red
property uchar green
property uchar blue
end_header
-0.805400 -0.384767 0.263402 0 204 0
-0.264705 0.272929 0.243720 0 0 255
-0.614775 -0.383175 -0.273399 0 0 255
0.783350 0.176050 -0.376305 0 0 255
-0.265013 -0.134983 0.374483 0 0 255
-0.736500 0.083900 -0.372065 0 0 255
-0.831100 -0.419400 -0.258102 0 204 0
-0.806600 -0.082050 0.388000 0 204 0
-0.922800 -0.105950 0.383804 0 0 255
-0.184838 0.376105 0.024519 0 0 255
-0.324820 0.360900 -0.025026 0 0 255
0.969300 0.082400 0.417404 0 0 255
0.165043 -0.184909 0.344275 0 0 255
0.127550 -0.349500 -0.179222 0 0 255
0.763900 0.461500 0.173401 0 0 255
-0.873600 0.034900 -0.389999 0 204 0
-0.474200 -0.197533 -0.389201 0 0 255
-1.005150 0.126650 -0.331848 0 0 255
0.181550 -0.150450 -0.360100 0 0 255
-0.794950 0.277900 -0.168106 0 204 0
0.884650 0.244050 -0.358650 0 0 255
0.003771 -0.026900 0.389742 0 0 255
-0.839000 -0.157200 -0.411102 0 0 255
-0.473200 -0.379067 -0.257436 0 0 255
0.463900 0.150650 -0.370804 0 0 255
-0.853200 0.007400 -0.399902 0 204 0
0.566450 -0.148750 0.348557 0 0 255
0.605300 -0.141533 0.350830 0 0 255
-0.455322 -0.164767 -0.398244 0 0 255
-0.856200 0.305033 -0.016067 0 0 255
-0.865300 -0.316950 -0.354103 0 0 255
0.304706 -0.054667 0.391490 0 0 255
-0.714483 0.236133 -0.255282 0 0 255
-0.835850 -0.274100 0.344651 0 204 0
0.474717 0.433467 0.145917 0 0 255
-0.714533 -0.034333 0.376104 0 204 0
-0.355313 -0.194773 -0.382915 0 0 255
-0.404325 -0.204292 0.355681 0 0 255
0.178950 -0.268900 0.279702 0 0 255
-0.843600 -0.005033 -0.403432 0 204 0
-0.055056 -0.343868 0.214950 0 0 255
-0.725800 -0.023425 -0.405178 0 0 255
0.114873 0.094890 0.387104 0 0 255
0.105026 0.034690 0.394964 0 0 255
-0.966200 -0.326050 -0.354851 0 0 255
-0.877800 0.030700 -0.391296 0 0 255
0.774550 -0.303900 0.105293 0 0 255
-0.855050 0.025025 -0.394356 0 204 0
0.144600 -0.131618 0.370417 0 0 255
0.005225 0.366594 -0.165611 0 0 255
-0.864500 0.279800 -0.138199 0 204 0
0.515388 -0.294325 -0.185226 0 0 255
0.305050 0.413725 0.134485 0 0 255
0.443880 0.325630 0.295340 0 0 255
-0.844000 0.005050 -0.400856 0 204 0
-0.694250 -0.421850 0.194572 0 204 0
-0.247450 -0.271700 0.311051 0 0 255
-0.465600 0.146917 0.328352 0 0 255
-0.154653 -0.247379 -0.338747 0 0 255
-0.844600 -0.277250 0.343598 0 0 255
-0.904300 0.121900 -0.343246 0 0 255
-0.814900 -0.315400 -0.351807 0 204 0
-0.415500 -0.416900 -0.184586 0 0 255
-0.834500 -0.005150 -0.403595 0 204 0
0.292500 0.319200 0.279602 0 0 255
0.124913 -0.035051 0.392983 0 0 255
-0.847267 0.214600 0.236399 0 255 255
-0.848450 0.235850 0.225001 0 255 255
-0.714267 -0.476433 -0.094701 0 204 0
-0.304925 -0.397792 -0.195201 0 0 255
0.164758 -0.285094 0.264934 0 0 255
0.344479 -0.215295 -0.306333 0 0 255
-0.825200 0.014967 -0.398366 0 204 0
0.504967 0.011433 -0.389832 0 204 0
-0.125086 0.258714 -0.298634 0 0 255
0.114357 -0.281014 0.270787 0 0 255
0.235004 -0.205737 0.326490 0 0 255
-0.683350 -0.397400 0.225899 0 0 255
-0.575767 0.316817 0.094434 0 0 255
-0.833100 0.004800 -0.401100 0 204 0
-0.917200 0.240700 0.181396 0 0 255
0.054841 -0.252605 0.301951 0 0 255
-0.819800 0.010500 -0.400604 0 204 0
-0.755375 0.166100 0.284325 0 204 0
0.764480 -0.314720 0.015103 0 0 255
0.104806 0.204817 0.354038 0 0 255
0.105030 0.224470 0.343462 0 0 255
-0.024801 -0.104842 0.378515 0 0 255
0.504014 0.204886 0.375573 0 0 255
0.088060 0.212780 0.350299 0 0 255
0.735500 0.418150 -0.215500 0 0 255
-0.164885 0.095672 -0.385923 0 0 255
-0.945250 0.267800 -0.146500 0 0 255
-0.242500 -0.339233 -0.268901 0 0 255
-0.215022 -0.238244 0.328979 0 0 255
0.214841 0.235396 0.336904 0 0 255
0.573933 -0.337200 0.036082 0 0 255
-0.705967 0.228267 -0.267334 0 0 255
-0.326500 -0.419500 0.129501 0 0 255
-0.797700 -0.185200 -0.407135 0 0 255
0.315181 0.224725 0.352856 0 0 255
0.404808 0.134823 0.392771 0 0 255
-0.385200 -0.140450 -0.400254 0 0 255
-0.125354 0.297612 -0.256995 0 0 255
-0.825600 -0.005300 -0.403834 0 204 0
-0.044810 0.034822 0.387810 0 0 255
-0.944700 0.242300 0.173004 0 0 255
0.853800 -0.251300 -0.180298 0 0 255
-0.683867 -0.014933 0.374766 0 0 255
-0.823250 0.004550 -0.401703 0 204 0
0.075286 0.371393 0.162563 0 0 255
0.544680 0.417920 -0.186063 0 0 255
-0.901500 0.230500 -0.231506 0 204 0
0.923700 -0.242300 -0.181396 0 0 255
0.384175 0.155258 -0.378723 0 0 255
-0.464433 -0.452367 0.074486 0 0 255
-0.035050 0.392897 -0.055663 0 0 255
0.585080 0.155020 -0.346802 0 0 255
-0.880400 -0.083000 0.383300 0 0 255
-0.264854 -0.094779 0.382266 0 0 255
0.524420 -0.144500 0.352298 0 0 255
-0.095156 0.383384 -0.075573 0 0 255
-0.415050 -0.085767 0.383142 0 0 255
-0.881050 0.286350 -0.105599 0 204 0
0.054618 -0.203049 -0.341728 0 0 255
0.503600 0.411200 -0.190399 0 0 255
-0.885100 0.228350 -0.237748 0 204 0
0.294912 -0.284273 -0.245088 0 0 255
-0.864400 0.211000 0.233795 0 204 0
0.445667 0.186800 0.379120 0 0 255
1.022200 -0.254600 0.165298 0 0 255
0.446800 0.269750 0.339248 0 0 255
0.415500 0.369200 -0.238734 0 0 255
-0.857300 0.289700 0.076202 0 255 255
0.694125 0.426675 -0.195125 0 0 255
-0.864650 -0.274700 0.345848 0 0 255
0.215562 -0.148146 -0.358844 0 0 255
0.364656 0.204850 0.366179 0 0 255
-0.245379 -0.426729 0.076013 0 0 255
-0.643800 -0.481950 -0.004852 0 0 255
-0.837300 -0.316600 -0.352196 0 204 0
0.454864 -0.185564 -0.315482 0 0 255
-0.817733 -0.005433 -0.405233 0 204 0
-0.814400 -0.025767 -0.410832 0 204 0
0.094520 0.355980 -0.205141 0 0 255
-0.714650 0.105925 -0.365825 0 0 255
0.764667 0.114833 0.411865 0 204 0
0.315006 0.344469 -0.255006 0 0 255
-0.782850 0.241250 -0.234444 0 204 0
0.603033 0.235067 -0.316300 0 0 255
0.266800 0.280800 0.310501 0 0 255
0.074791 -0.228691 0.319072 0 0 255
-0.894550 0.292200 -0.064904 0 0 255
0.533733 -0.132267 -0.341537 0 204 0
0.691100 -0.270900 0.211899 0 0 255
-0.935000 0.214000 -0.250900 0 0 255
-0.566220 -0.458580 -0.123718 0 0 255
-0.886300 0.055400 -0.381302 0 0 255
0.085981 0.183646 0.360777 0 0 255
0.584100 -0.239033 -0.248698 0 0 255
-0.884850 0.046450 -0.385147 0 0 255
-0.084777 -0.363810 -0.205100 0 0 255
-0.524400 -0.145157 -0.405443 0 0 255
-0.694633 0.022167 -0.400503 0 0 255
0.494800 -0.141750 -0.340553 0 204 0
-0.125334 0.343931 -0.184578 0 0 255
0.865500 -0.293250 0.104950 0 0 255
0.124937 0.166894 0.369180 0 0 255
0.304700 -0.291943 0.241887 0 0 255
0.124853 0.243319 0.322794 0 0 255
-0.304540 -0.351160 0.241461 0 0 255
-0.724475 0.233525 -0.256477 0 0 255
0.734400 -0.271200 0.202049 0 0 255
0.716600 0.046975 -0.385098 0 0 255
0.255089 0.296189 -0.296784 0 0 255
-0.444367 -0.152350 -0.400869 0 0 255
-0.645350 -0.454050 -0.163624 0 0 255
-0.434867 0.228100 -0.297801 0 0 255
-0.714367 -0.024283 -0.407166 0 0 255
0.548200 -0.101700 -0.279099 0 204 0
-0.995750 0.125900 0.302650 0 0 255
0.874000 -0.262300 0.190308 0 0 255
-0.344350 -0.288550 -0.328949 0 0 255
-0.842300 -0.016300 0.374802 0 0 255
0.459800 -0.090900 -0.328903 0 204 0
-0.415260 0.331820 0.105130 0 0 255
-0.675314 0.286400 0.144786 0 0 255
-0.888600 0.031200 -0.390503 0 0 255
0.365170 -0.126170 0.368440 0 0 255
-0.315411 0.293447 -0.234948 0 0 255
-0.845967 -0.006067 0.372533 0 0 255
-0.374375 0.347733 0.065325 0 0 255
-0.923400 -0.488750 -0.153397 0 0 255
-0.733700 -0.480400 0.081696 0 204 0
0.624400 -0.291980 0.185837 0 0 255
-0.465300 -0.219600 -0.379700 0 0 255
-0.715575 -0.034150 -0.408523 0 0 255
0.324529 -0.141414 0.360759 0 0 255
-0.053011 -0.409689 -0.056866 0 0 255
-0.883750 0.024100 -0.393250 0 0 255
0.584550 -0.104700 -0.255005 0 204 0
0.255129 -0.375371 0.024590 0 0 255
0.304982 0.085123 0.396942 0 0 255
0.269200 0.148700 0.379700 0 0 255
-0.444890 0.115120 -0.374399 0 0 255
0.284990 0.095080 0.394165 0 0 255
-0.882350 0.037550 -0.388550 0 0 255
0.244883 0.155508 0.378176 0 0 255
0.244463 -0.168675 0.349115 0 0 255
0.714650 -0.311150 0.102555 0 0 255
0.884950 0.025400 -0.375953 0 0 255
0.906100 0.033100 -0.376602 0 0 255
-0.725180 0.104760 -0.364578 0 0 255
-0.778650 0.308500 -0.015595 0 204 0
0.334650 0.024928 -0.394434 0 0 255
0.305320 0.353533 0.244621 0 0 255
-0.944850 0.237800 -0.212806 0 0 255
0.703100 -0.299500 -0.116592 0 0 255
-0.811400 0.289600 -0.134506 0 204 0
-0.953450 -0.197050 0.374901 0 0 255
0.014866 -0.105063 0.378418 0 0 255
0.370000 -0.022300 0.400101 0 0 255
0.203867 -0.320983 -0.211151 0 0 255
-0.484183 -0.443267 0.114014 0 0 255
0.146800 0.370233 -0.190501 0 0 255
0.384600 0.114843 -0.387687 0 0 255
0.615200 -0.285129 -0.175188 0 0 255
-0.875550 0.054550 -0.382194 0 204 0
-0.235426 0.226222 -0.316782 0 0 255
-0.703900 0.141100 0.312607 0 0 255
-0.744900 0.309900 0.028503 0 204 0
-0.816500 -0.173633 0.376567 0 255 255
-0.873900 0.045650 -0.385903 0 204 0
0.385131 0.104481 -0.388220 0 0 255
-0.923650 -0.457800 0.185348 0 0 255
-0.787400 -0.403200 0.241654 0 204 0
0.695500 -0.314450 -0.065147 0 0 255
-0.771100 0.013400 -0.388901 0 0 255
-0.635550 -0.328500 -0.328896 0 0 255
-0.928400 -0.127900 0.383194 0 0 255
-0.876600 0.215850 0.225754 0 204 0
-0.354450 -0.433513 -0.124800 0 0 255
-0.975833 -0.184967 -0.408137 0 0 255
-0.815600 -0.085300 -0.414802 0 204 0
-0.286080 -0.421200 -0.134522 0 0 255
-1.010600 0.223400 0.193405 0 0 255
-0.837950 -0.095600 -0.414902 0 0 255
0.534667 -0.302017 0.183718 0 0 255
-0.996700 -0.173400 -0.410004 0 0 255
-0.734600 0.103700 -0.363224 0 0 255
-0.916700 0.175400 -0.297394 0 0 255
-0.575143 -0.105871 0.380545 0 0 255
0.015974 -0.347430 0.217308 0 0 255
0.155275 0.370713 -0.191811 0 0 255
-0.764000 -0.482775 -0.123775 0 204 0
-0.135016 0.247148 -0.307708 0 0 255
-0.865300 0.053750 -0.383201 0 204 0
0.074456 0.371219 -0.173186 0 0 255
-0.843400 0.043500 -0.388451 0 204 0
-0.869900 0.039000 -0.388901 0 204 0
0.696275 -0.242750 -0.224053 0 0 255
-0.917600 0.170600 -0.302094 0 0 255
0.835400 0.175700 -0.376953 255 255 0
-0.804450 0.288700 0.105247 0 204 0
-0.264717 -0.374328 -0.225012 0 0 255
0.643950 -0.328917 0.034884 0 0 255
-0.779100 -0.323900 0.317307 255 255 0
0.016018 -0.322850 0.233336 0 0 255
-0.914000 0.255000 -0.185555 0 204 0
-0.094900 0.386269 -0.054569 0 0 255
0.334839 0.044817 -0.394061 0 0 255
-0.874900 0.014550 -0.396698 0 0 255
-0.366009 0.338400 0.105090 0 0 255
0.774767 0.293033 -0.331701 0 0 255
-0.514100 0.280767 0.192998 0 0 255
-1.026600 0.269800 0.079498 0 0 255
-0.094616 -0.418020 -0.015645 0 0 255
-0.925000 0.233300 0.193100 0 0 255
0.885850 0.215700 -0.367698 0 204 0
0.164927 -0.275264 -0.275036 0 0 255
-0.882200 0.012600 -0.397003 0 0 255
-0.775300 -0.356900 -0.318802 0 204 0
-0.917450 -0.506250 -0.085548 0 0 255
-0.055852 0.393120 -0.014869 0 0 255
-0.790900 0.307850 -0.035805 0 204 0
-0.716333 -0.023800 0.374629 0 204 0
0.811900 0.459400 0.189606 0 0 255
-0.847000 -0.038900 -0.410004 0 204 0
0.174946 -0.034859 0.393174 0 0 255
-0.895800 0.231200 0.200195 0 204 0
0.852500 0.459800 0.199707 0 0 255
-0.285012 0.094935 0.363407 0 0 255
0.104651 0.025201 0.395850 0 0 255
-0.234660 -0.409420 0.128339 0 0 255
-0.304692 -0.165800 -0.388994 0 0 255
-0.344563 -0.425513 -0.145752 0 0 255
-0.644500 -0.154600 -0.407650 0 0 255
-0.663050 -0.145900 -0.409599 0 0 255
-0.725120 -0.036000 -0.407284 0 0 255
0.134795 0.254792 0.315006 0 0 255
-0.715200 -0.304125 0.314049 0 204 0
-0.704867 -0.105700 -0.412572 0 0 255
0.943500 0.242300 0.397293 0 0 255
0.983550 -0.287550 -0.005348 0 0 255
-0.873050 0.023600 -0.394050 0 0 255
0.284858 -0.054663 0.390745 0 0 255
-0.869500 -0.500500 0.052795 0 0 255
-0.852900 0.033700 -0.391602 0 204 0
-0.224867 -0.420300 0.091100 0 0 255
-0.285113 -0.272225 0.311712 0 0 255
-0.686075 -0.479000 -0.074249 0 204 0
0.136175 -0.319033 -0.228366 0 0 255
-0.665380 -0.125220 -0.412399 0 0 255
0.094998 -0.114876 0.374501 0 0 255
0.315082 -0.205186 -0.316786 0 0 255
0.963900 -0.215900 0.248993 0 0 255
-0.846350 -0.015450 -0.405701 0 204 0
0.397200 0.205563 -0.359463 0 0 255
-0.472900 0.189450 0.299148 0 0 255
-0.054814 0.310829 -0.250556 0 0 255
-0.855150 -0.313450 -0.355500 0 0 255
-0.245023 0.054639 0.376374 0 0 255
0.355462 0.224162 -0.351784 0 0 255
-0.064867 -0.161722 0.360700 0 0 255
0.144857 0.104878 0.384926 0 0 255
0.878200 0.186700 0.408005 0 0 255
-0.503600 -0.402000 -0.231155 0 0 255
-0.254750 -0.294535 -0.313500 0 0 255
-0.005792 -0.370875 -0.171782 0 0 255
0.446450 -0.177700 0.339100 0 0 255
-0.015232 -0.256320 -0.317347 0 0 255
-0.734200 -0.035467 -0.405502 0 0 255
-1.020600 -0.006200 0.366898 0 0 255
0.923900 0.430500 -0.222397 0 204 0
0.882350 -0.298000 0.065850 0 0 255
0.645060 0.434160 -0.174441 0 0 255
-0.851400 0.252720 0.185141 0 204 0
-0.416433 0.339367 0.078298 0 0 255
-0.863400 0.020900 -0.395004 0 204 0
-0.074658 -0.380983 0.152966 0 0 255
0.444223 -0.195100 0.325208 0 0 255
-0.764900 0.277600 -0.174621 0 204 0
-0.856367 0.055200 -0.383097 0 204 0
0.152950 -0.380450 -0.081497 0 0 255
0.212425 -0.320650 0.210930 0 0 255
-0.695160 0.105100 0.333322 0 0 255
0.515157 0.094229 -0.382342 0 0 255
0.589200 0.339400 -0.289200 0 0 255
-0.635725 -0.334325 -0.323623 0 0 255
0.593950 0.312650 -0.311104 0 0 255
-0.585300 0.330100 -0.051651 0 0 255
-0.524843 -0.144886 0.374828 0 0 255
-0.215040 0.226845 -0.317836 0 0 255
0.144668 0.358016 0.205074 0 0 255
-0.853250 0.044200 -0.387596 0 204 0
-0.535383 0.322617 -0.124550 0 0 255
-0.864000 0.255267 0.165629 0 0 255
-0.785467 0.196567 -0.286463 0 204 0
0.545925 -0.195700 0.315851 0 0 255
-0.154768 -0.378158 0.175879 0 0 255
-0.504700 -0.234657 -0.375730 0 0 255
-0.364869 -0.225238 0.345247 0 0 255
-0.054755 -0.205250 -0.354095 0 0 255
-0.863900 0.255900 -0.195134 0 204 0
0.474400 0.318350 -0.298348 0 0 255
-0.706900 -0.033050 -0.409645 0 0 255
0.477967 0.097433 -0.389928 0 0 255
-0.365050 -0.205093 0.354042 0 0 255
-0.604550 -0.408700 -0.238800 0 0 255
0.594900 -0.298183 -0.154600 0 0 255
-0.345230 -0.372980 -0.244043 0 0 255
-0.566000 -0.440200 0.141403 0 0 255
0.485357 -0.005600 -0.353943 0 204 0
0.244978 -0.086396 -0.378892 0 0 255
-0.726400 -0.084750 -0.409851 0 0 255
-0.084403 0.387419 -0.055268 0 0 255
-0.494925 -0.065250 -0.412922 0 0 255
0.414300 0.261620 0.341263 0 0 255
-0.727100 -0.390000 0.238693 0 204 0
-0.654900 0.300900 -0.151505 0 0 255
0.335171 0.268286 0.328313 0 0 255
-0.847333 -0.085900 -0.414103 0 0 255
-0.744533 -0.095783 -0.407517 0 204 0
-0.553500 -0.471700 -0.024925 0 0 255
0.154791 -0.233800 -0.312673 0 0 255
-0.816150 0.308150 -0.035148 0 204 0
0.295216 -0.104826 0.376939 0 0 255
-0.689700 -0.020600 -0.409897 0 0 255
-0.559200 0.110500 0.340500 0 0 255
-0.294789 -0.262900 -0.341587 0 0 255
-0.098800 0.249800 -0.309296 0 0 255
0.374836 0.125079 -0.385837 0 0 255
0.394900 0.134538 -0.383899 0 0 255
0.554529 0.055743 -0.388399 0 0 255
0.415300 0.180200 0.380249 0 0 255
-0.860300 -0.097750 -0.414604 0 0 255
-0.275170 -0.055330 0.386695 0 0 255
-0.076439 -0.410817 0.054617 0 0 255
-0.784900 0.278850 -0.166900 0 204 0
-0.484200 -0.226417 -0.378016 0 0 255
-0.775567 0.284367 -0.155904 0 204 0
0.869300 0.137200 -0.382202 0 0 255
-0.375086 -0.105357 -0.406292 0 0 255
-0.835750 0.055650 -0.383904 0 204 0
-0.665200 -0.353900 0.273264 0 0 255
-0.755533 -0.177067 0.368668 0 204 0
-0.415520 -0.244560 -0.363480 0 0 255
0.465257 0.392729 -0.214044 0 0 255
-0.555250 -0.250750 -0.370849 0 0 255
0.844700 -0.227700 -0.218704 0 0 255
0.469083 -0.047217 -0.344815 0 204 0
-0.633200 0.128700 -0.358994 0 0 255
-0.879200 0.280200 -0.130295 0 204 0
0.475230 -0.285040 0.225711 0 0 255
-0.685675 -0.295125 -0.354473 0 0 255
-0.796767 0.283567 -0.153900 0 204 0
-0.814400 -0.411600 -0.265702 0 204 0
-0.834200 0.044900 -0.388066 0 204 0
0.085050 0.231486 -0.330743 0 0 255
0.485880 0.273100 -0.332056 0 0 255
-0.755075 0.185125 0.267227 0 204 0
-0.574200 -0.418600 -0.217804 0 0 255
-0.824550 0.063150 -0.382401 0 204 0
0.504312 0.064150 -0.392500 0 0 255
-0.259200 -0.370400 -0.230392 0 0 255
0.826100 0.446050 -0.185295 0 0 255
0.545300 0.065010 -0.385381 0 0 255
-0.875750 0.117500 -0.348350 0 204 0
-0.825500 -0.414400 -0.263748 0 204 0
0.545575 0.056375 -0.389072 0 0 255
0.354708 -0.331425 -0.153517 0 0 255
-0.827100 0.054900 -0.385201 0 204 0
0.506425 0.054250 -0.392458 0 0 255
-0.473600 -0.278100 -0.349503 0 0 255
-0.635200 -0.135533 -0.410766 0 0 255
0.895900 -0.207633 -0.236567 0 0 255
-0.374800 -0.442544 0.074521 0 0 255
-0.746250 0.299350 0.086853 0 204 0
0.025476 -0.374111 -0.154885 0 0 255
-0.812300 0.041700 0.367096 0 0 255
-0.843167 0.184333 0.285101 0 255 255
-1.008750 -0.043450 0.375946 0 0 255
0.444700 -0.065350 -0.375675 0 204 0
-0.977200 0.020600 -0.391098 0 0 255
-0.765075 0.308925 -0.044701 0 204 0
-0.356438 0.339013 0.106838 0 0 255
-0.826233 0.034767 -0.393702 0 204 0
-0.673750 -0.391850 -0.270745 0 0 255
0.673500 -0.072750 0.381302 0 0 255
0.545867 0.036433 -0.390368 0 0 255
-0.831000 0.052550 0.360954 0 204 0
-0.835750 0.133625 0.325599 0 204 0
-0.465430 -0.254900 0.333328 0 0 255
0.804550 0.224750 -0.363403 0 0 255
0.375600 0.203518 -0.361864 0 0 255
0.384619 -0.224875 -0.293732 0 0 255
-0.956250 0.084750 0.332099 0 0 255
-0.634160 -0.145780 -0.409140 0 0 255
-0.875000 0.147300 -0.326797 0 204 0
0.005158 -0.376058 0.175527 0 0 255
0.164650 0.317556 -0.267290 0 0 255
-0.827500 0.048500 -0.387299 0 204 0
0.504062 0.044125 -0.392300 0 0 255
-0.873800 0.166100 0.279800 0 204 0
0.405389 -0.277367 0.247091 0 0 255
-0.854833 0.154533 -0.323034 0 204 0
0.864500 0.207700 -0.369507 0 0 255
-0.264806 -0.406063 0.144700 0 0 255
0.344995 -0.205075 -0.314551 0 0 255
-0.914550 0.206250 -0.263153 0 0 255
-0.827850 0.025850 -0.395348 0 204 0
0.683660 -0.236240 -0.235120 0 0 255
-0.764475 0.024050 -0.387825 0 0 255
0.184815 -0.314367 0.225382 0 0 255
0.914250 0.175150 -0.377151 0 0 255
-0.907650 0.278200 0.095299 0 0 255
0.555360 0.014280 -0.387201 0 204 0
0.455123 0.125162 -0.384838 0 0 255
0.533829 0.006057 -0.387244 0 204 0
0.394930 0.314730 -0.293880 0 0 255
-0.654360 0.306800 -0.133221 0 0 255
0.390800 0.099600 -0.389297 0 0 255
-0.704600 0.115250 -0.362598 0 0 255
0.643975 -0.329575 0.015175 0 0 255
-0.794600 0.252000 0.191299 0 204 0
-0.815300 0.308600 -0.013749 0 204 0
0.214738 -0.104971 0.376666 0 0 255
0.164892 0.286356 -0.297236 0 0 255
0.265927 -0.317991 0.207239 0 0 255
-0.765150 0.005475 -0.392628 0 0 255
0.655100 -0.309500 -0.106804 0 0 255
-0.635640 -0.393220 -0.264621 0 0 255
0.853400 0.366350 -0.284355 0 0 255
0.941100 0.130600 -0.381393 0 0 255
0.928200 0.128600 -0.382004 0 0 255
-0.723800 0.141050 0.311348 0 0 255
-0.764067 0.303367 0.045400 0 204 0
0.848750 0.084650 -0.383904 0 0 255
-0.849800 0.305600 0.061798 0 204 0
0.445327 -0.185236 -0.316653 0 0 255
-0.612500 -0.387700 -0.267456 0 0 255
0.224904 0.235454 -0.337551 0 0 255
-0.686800 -0.382350 -0.281754 0 0 255
-0.185065 0.234205 0.294108 0 0 255
-0.820000 0.023300 -0.396698 0 204 0
0.925550 -0.222000 -0.212952 0 0 255
0.455100 0.187700 0.378823 0 0 255
-0.994600 -0.037450 0.375396 0 0 255
0.245175 0.344175 -0.245296 0 0 255
-0.769900 -0.423200 -0.249298 0 204 0
0.096057 -0.309300 -0.249084 0 0 255
-0.776600 0.289500 -0.139893 0 204 0
-0.713850 0.036250 -0.394074 0 0 255
-0.939300 0.280300 -0.105606 0 0 255
-0.775600 -0.464033 -0.172369 0 204 0
-0.733225 -0.244875 -0.376724 0 0 255
0.135265 -0.266529 -0.286900 0 0 255
-0.075389 -0.373546 -0.184931 0 0 255
-0.704975 -0.173700 -0.403225 0 0 255
-0.195257 0.092029 0.370272 0 0 255
0.244748 0.025535 0.398142 0 0 255
-0.585640 0.271920 -0.224423 0 0 255
-0.835550 -0.115350 0.383553 0 0 255
0.655033 0.480833 -0.005498 0 0 255
-0.784600 -0.416167 0.225067 0 204 0
-0.394622 0.331167 -0.144858 0 0 255
-0.284910 -0.285175 -0.324581 0 0 255
-0.803375 -0.124500 -0.416672 0 0 255
0.126600 0.400314 -0.112056 0 0 255
0.950400 0.056900 -0.378296 0 0 255
0.314955 -0.233200 0.302172 0 0 255
-0.444673 0.064627 -0.394011 0 0 255
-0.355164 -0.235379 -0.363607 0 0 255
-0.616250 -0.346125 0.277099 0 0 255
-0.515133 -0.434067 0.145416 0 0 255
-0.812725 -0.104275 0.384853 0 0 255
-0.936250 0.224950 -0.234894 0 0 255
0.104237 0.196670 0.358170 0 0 255
-0.758850 -0.013100 0.370857 0 204 0
-0.264745 0.357090 -0.104875 0 0 255
0.633933 -0.114517 0.364299 0 0 255
-0.885500 -0.024350 -0.406600 0 0 255
0.355875 -0.308563 0.206900 0 0 255
0.045588 0.172188 -0.360629 0 0 255
-0.897400 -0.114900 -0.414696 0 0 255
0.245015 -0.116492 -0.368846 0 0 255
-0.087250 -0.410350 -0.080200 0 0 255
0.434700 -0.284542 0.235352 0 0 255
-0.725050 0.033575 -0.392677 0 0 255
0.234212 0.167925 -0.369513 0 0 255
-0.934450 0.176650 -0.294502 0 0 255
-0.114635 -0.242053 0.321501 0 0 255
-0.684333 -0.195233 0.363632 0 0 255
0.125274 -0.315521 -0.235179 0 0 255
0.504175 0.428500 0.167049 0 0 255
0.514300 0.243333 -0.335866 0 0 255
-0.733900 -0.297700 -0.349197 0 0 255
-0.910633 -0.104833 -0.414902 0 0 255
-0.873500 -0.024200 -0.406753 0 0 255
-0.686533 -0.332833 0.292099 0 0 255
0.364713 0.075080 -0.392787 0 0 255
-0.827650 -0.326900 -0.344902 0 204 0
0.085483 0.252526 0.312174 0 0 255
-0.856000 -0.034767 -0.409032 0 0 255
-0.334850 -0.294479 -0.323406 0 0 255
-0.911550 0.287500 -0.083557 0 0 255
-0.435400 -0.283080 -0.342178 0 0 255
-0.665200 -0.440600 0.160004 0 0 255
-0.981800 -0.200500 -0.404999 0 0 255
-0.851800 -0.014567 0.374237 0 0 255
0.663575 0.264575 0.363003 0 0 255
-0.881200 -0.017700 -0.405106 0 0 255
0.515330 0.134650 -0.365219 0 0 255
-0.948500 0.277700 -0.113144 0 0 255
-0.784650 0.255000 0.184151 0 204 0
0.279450 0.370550 0.225899 0 0 255
-0.897400 -0.345300 0.306702 0 0 255
-0.725600 0.084867 -0.373950 0 0 255
0.174731 -0.345496 -0.174916 0 0 255
-0.185063 -0.236895 -0.348058 0 0 255
-0.777100 -0.481700 -0.121597 0 204 0
-0.503983 0.337017 -0.075152 0 0 255
-0.184665 -0.217782 -0.359042 0 0 255
-0.724500 -0.365767 -0.296738 0 204 0
-0.465188 -0.254463 -0.362641 0 0 255
-0.933900 0.266900 -0.152695 0 0 255
0.434900 0.074782 -0.392091 0 0 255
-0.365433 -0.409300 -0.188329 0 0 255
0.225155 -0.053555 0.391250 0 0 255
-0.594267 0.015533 0.372131 0 0 255
-0.414785 -0.045939 -0.410417 0 0 255
-0.908300 0.053100 0.350296 0 0 255
-0.075809 -0.414236 0.024699 0 0 255
-0.884900 -0.048700 -0.410599 0 0 255
-0.377850 -0.159800 0.369751 0 0 255
0.375655 0.316000 0.296718 0 0 255
0.474600 -0.105843 -0.358074 0 204 0
-0.555400 -0.461000 0.080399 0 0 255
0.575400 -0.137667 -0.333466 0 0 255
0.735733 -0.213333 -0.253835 0 0 255
-0.715500 0.084633 -0.375961 0 0 255
0.524850 0.015562 -0.389326 0 204 0
0.445280 -0.074970 -0.372830 0 204 0
-0.124841 0.034967 0.385357 0 0 255
-0.754825 -0.045425 -0.403877 0 0 255
-0.871900 -0.046050 -0.410401 0 0 255
-0.285187 -0.295844 -0.316061 0 0 255
-0.902700 0.262000 -0.172897 0 204 0
0.594420 -0.145060 -0.325543 0 0 255
0.265331 -0.363294 -0.094999 0 0 255
0.521000 -0.310100 -0.151505 0 0 255
-0.204953 0.154731 0.343820 0 0 255
0.313700 0.288083 -0.308716 0 0 255
-0.715100 -0.367067 -0.295532 0 204 0
-0.564850 -0.454250 0.105446 0 0 255
-0.694680 -0.255500 -0.375137 0 0 255
0.414800 -0.177633 0.338621 0 0 255
-0.194967 -0.205151 -0.366103 0 0 255
-0.683867 -0.096367 -0.414531 0 0 255
-0.215533 -0.292367 -0.311842 0 0 255
0.605300 -0.319900 0.117599 0 0 255
-0.305114 -0.361471 -0.252101 0 0 255
0.454950 -0.014575 0.400837 0 0 255
0.866567 0.024600 -0.376368 0 0 255
-0.861700 -0.024100 -0.406845 0 204 0
0.285400 -0.319700 0.198801 0 0 255
-0.740100 -0.009700 -0.400406 0 204 0
0.404025 -0.171150 -0.330925 0 0 255
0.485086 -0.054829 -0.255358 0 204 0
-0.732833 0.034133 -0.390900 0 0 255
-0.704467 -0.484700 0.015473 0 204 0
-0.644567 -0.145033 -0.409500 0 0 255
-0.665775 -0.154100 -0.408276 0 0 255
-0.767600 -0.487350 0.065399 0 204 0
-0.235122 -0.411556 0.123377 0 0 255
-0.104875 0.214925 -0.334967 0 0 255
0.745233 -0.298100 -0.104767 0 0 255
0.664620 -0.033880 0.394241 0 0 255
-0.054693 -0.307232 -0.277230 0 0 255
0.354700 -0.174313 0.343544 0 0 255
-0.414809 0.324500 -0.155755 0 0 255
-0.745117 -0.035700 -0.404065 0 0 255
-0.774767 -0.408167 -0.266133 0 204 0
0.435200 -0.014943 0.400317 0 0 255
-0.703700 -0.116200 -0.412165 0 0 255
0.474908 -0.194550 0.323775 0 0 255
-0.813300 0.280000 -0.159698 0 204 0
-0.794600 -0.411700 -0.263397 0 204 0
-0.584800 -0.452260 0.115677 0 0 255
-0.553600 -0.378600 -0.269897 0 0 255
0.575200 0.264360 0.353818 0 0 255
-0.867950 -0.015450 -0.404854 0 0 255
0.452200 -0.022100 0.400696 0 0 255
-0.770500 0.040700 -0.381500 0 0 255
0.415760 0.024590 -0.392419 0 0 255
-0.044648 -0.247228 -0.327896 0 0 255
0.024952 -0.314802 -0.254542 0 0 255
-0.744700 -0.015800 -0.400935 0 0 255
-0.779333 0.308433 -0.025899 0 204 0
-0.005128 0.266633 -0.297020 0 0 255
0.224939 0.216450 0.348078 0 0 255
-0.734125 0.025200 -0.393028 0 0 255
0.774800 0.361700 -0.282700 0 0 255
0.394792 -0.175246 0.342876 0 0 255
-0.765075 -0.487825 0.074330 0 204 0
0.574717 0.164533 0.393415 0 0 255
0.074537 0.115040 0.378341 0 0 255
0.440800 -0.300600 -0.190292 0 0 255
-0.867100 -0.035033 -0.408732 0 0 255
-0.564500 0.249050 0.227699 0 0 255
-0.524680 -0.425220 0.165540 0 0 255
0.064750 -0.278364 0.278178 0 0 255
0.435750 -0.178175 0.339149 0 0 255
-0.943750 0.232350 -0.222000 0 0 255
0.305074 0.335653 0.264841 0 0 255
-0.794000 0.137400 0.314301 0 204 0
-0.744800 -0.045100 -0.405853 0 0 255
0.663980 -0.045460 0.391220 0 0 255
0.566040 0.316540 -0.306061 0 0 255
-0.535617 -0.155867 -0.403684 0 0 255
-0.657100 -0.231700 0.350006 0 0 255
-0.594650 -0.460800 0.092445 0 0 255
-0.894400 -0.214700 0.369293 0 0 255
-0.861100 -0.047800 -0.410797 0 0 255
0.683000 -0.271650 0.211547 0 0 255
-0.816500 -0.267800 -0.377899 0 0 255
0.244974 -0.365900 -0.094621 0 0 255
0.737050 -0.208600 -0.258751 0 0 255
-0.645800 -0.303133 0.312500 0 0 255
-0.854950 -0.045450 -0.410751 0 0 255
-0.305625 -0.337142 0.257217 0 0 255
-0.958400 -0.478700 -0.186600 0 0 255
-0.205342 0.145445 0.348022 0 0 255
-0.947200 -0.451700 -0.232101 0 0 255
0.394578 0.316967 0.297278 0 0 255
0.833000 -0.279000 -0.129196 0 0 255
-0.848567 0.249033 -0.214732 0 204 0
-0.943900 -0.498500 -0.131897 0 0 255
0.165020 0.284683 0.294257 0 0 255
0.453400 -0.108767 -0.359532 0 204 0
0.184600 0.135291 0.378881 0 0 255
-0.714180 0.093860 -0.372339 0 0 255
-0.306900 0.339600 0.119995 0 0 255
0.314214 -0.311971 0.212269 0 0 255
-0.736167 -0.185500 -0.396668 0 204 0
-0.646500 -0.445467 -0.184168 0 0 255
-0.848933 0.264767 -0.204203 0 204 0
-0.898550 0.276700 -0.133805 0 204 0
0.807400 0.293150 -0.332954 0 0 255
-0.863400 -0.267300 0.349304 0 0 255
0.144733 -0.320600 0.220164 0 0 255
-0.384780 -0.407860 -0.195598 0 0 255
-0.495222 0.293689 -0.205070 0 0 255
-0.753500 0.189100 -0.299103 0 0 255
-0.834250 -0.226550 -0.394500 0 0 255
0.274050 0.408867 -0.138252 0 0 255
-0.415543 -0.074014 -0.410359 0 0 255
-0.645900 -0.219000 -0.389801 0 0 255
-0.514800 -0.421800 0.171295 0 0 255
-0.880950 -0.073550 -0.413444 0 0 255
0.114791 0.387778 -0.145085 0 0 255
0.294971 0.075038 0.397423 0 0 255
-0.405883 -0.451383 0.045265 0 0 255
0.324180 0.331320 -0.271179 0 0 255
-0.715500 0.182100 0.281006 0 0 255
-0.016057 0.088320 0.379492 0 0 255
0.468744 -0.036356 -0.323912 0 204 0
0.207550 -0.369600 -0.098625 0 0 255
0.745867 0.094033 -0.385798 0 0 255
-0.505017 -0.393250 -0.243983 0 0 255
-0.805450 -0.405000 -0.272552 0 204 0
-0.025200 0.330214 0.210741 0 0 255
-0.395119 0.215281 0.284976 0 0 255
1.012200 -0.263250 0.145501 0 0 255
-0.883133 -0.084533 -0.414200 0 0 255
-0.415700 -0.086225 -0.410477 0 0 255
-0.115262 -0.195118 -0.364097 0 0 255
-0.745267 0.238133 -0.246104 0 0 255
-0.533800 -0.407967 -0.226603 0 0 255
-0.744150 -0.075200 -0.407353 0 0 255
0.264910 -0.212000 0.321190 0 0 255
-0.165121 0.347437 0.145729 0 0 255
-0.868500 -0.070600 -0.413406 0 0 255
-0.755267 -0.074167 -0.405838 0 0 255
-0.274835 -0.155740 0.368765 0 0 255
0.746050 -0.235200 0.255424 0 0 255
-0.444814 -0.283957 -0.342686 0 0 255
0.225268 -0.337427 0.175600 0 0 255
0.472233 -0.350200 0.024994 0 0 255
0.035371 0.391342 0.094238 0 0 255
-0.214140 -0.168880 -0.381543 0 0 255
-0.698300 -0.140500 -0.410294 0 0 255
0.195007 0.398307 0.135767 0 0 255
-0.870300 -0.077200 -0.413948 0 0 255
0.262367 -0.330633 0.180862 0 0 255
0.294994 -0.343653 0.145094 0 0 255
-0.605567 -0.382367 -0.273168 0 0 255
-0.832100 0.091000 0.350998 0 204 0
-0.899300 -0.341000 -0.340897 0 0 255
0.484367 0.348600 0.278966 0 0 255
-0.724800 0.180500 0.280701 0 0 255
-0.997500 0.277150 0.062851 0 0 255
-0.675400 -0.458700 -0.154900 0 0 255
0.254937 -0.343879 0.154858 0 0 255
-0.446180 -0.211820 -0.381741 0 0 255
-0.255174 -0.135265 0.374144 0 0 255
-0.858400 -0.076350 -0.414002 0 0 255
0.914600 0.382000 0.311996 0 204 0
0.484725 -0.214675 0.306324 0 0 255
-0.013967 -0.098989 0.379656 0 0 255
0.244592 -0.331683 0.183001 0 0 255
0.054680 0.174951 0.353735 0 0 255
-0.892400 0.091200 0.332199 0 0 255
0.444450 -0.141100 0.360794 0 0 255
0.424677 -0.273615 -0.234484 0 0 255
-0.815300 -0.462500 -0.183502 0 204 0
-0.947200 0.279200 0.076798 0 0 255
0.897800 0.380600 0.311295 0 204 0
0.424493 -0.135250 0.362436 0 0 255
0.314789 0.254928 0.334349 0 0 255
0.073452 0.217122 0.336909 0 0 255
0.928500 -0.288300 -0.057098 0 0 255
-0.045562 0.348205 0.176233 0 0 255
0.074336 0.175608 0.357341 0 0 255
-0.685267 -0.202867 0.361099 0 0 255
-0.848100 0.262700 -0.211395 0 204 0
-0.544780 -0.234620 -0.377676 0 0 255
-0.938600 0.268100 0.117294 0 0 255
-0.855533 -0.065200 -0.413000 0 0 255
0.813200 0.385600 0.294151 0 0 255
-0.713300 -0.135867 -0.408768 0 0 255
0.305084 0.144847 0.383590 0 0 255
-0.372780 0.350680 0.052264 0 0 255
-0.754900 -0.064900 -0.405754 0 0 255
-0.154959 0.123156 0.361334 0 0 255
0.713800 -0.044000 0.391098 0 0 255
0.264861 0.124996 0.386651 0 0 255
-0.705167 -0.204400 0.360967 0 0 255
0.709800 0.102300 -0.382401 0 204 0
-0.495350 -0.194650 0.361381 0 0 255
0.883567 -0.275933 0.155635 0 0 255
-0.878350 -0.064200 -0.412597 0 0 255
0.185441 0.414900 0.074853 0 0 255
-0.755025 -0.054100 -0.404904 0 0 255
-0.875400 -0.055050 -0.411552 0 0 255
0.305421 0.294500 0.305458 0 0 255
-0.841083 0.165283 0.294200 0 204 0
0.715000 0.194733 0.395467 0 0 255
-0.895900 0.185500 0.258148 0 204 0
-0.364900 -0.284900 -0.333709 0 0 255
-0.745833 -0.054633 -0.406204 0 0 255
-0.776950 -0.347200 -0.327698 0 204 0
-0.863550 -0.054550 -0.411652 0 0 255
-0.275113 -0.094765 0.382736 0 0 255
0.922300 0.493600 0.139008 0 0 255
0.790000 0.427700 -0.209000 0 0 255
0.075382 0.248536 -0.318948 0 0 255
-0.435050 -0.288000 -0.338699 0 0 255
0.332650 -0.331225 -0.161904 0 0 255
-0.745375 -0.067100 -0.406898 0 0 255
-0.866400 -0.063500 -0.412597 0 0 255
0.144706 -0.144859 -0.362531 0 0 255
-0.405522 -0.453056 -0.054821 0 0 255
-0.716700 0.229600 0.229294 0 0 255
-0.757050 0.125350 -0.346375 0 0 255
-0.364890 -0.414110 0.155219 0 0 255
-0.852100 -0.054000 -0.411751 0 0 255
-0.636067 -0.373300 0.252497 0 0 255
-0.514820 -0.316020 0.296084 0 0 255
0.265361 -0.234522 0.304809 0 0 255
-0.775250 0.145800 0.303650 0 204 0
0.245300 0.321200 0.271599 0 0 255
-0.454871 -0.323900 -0.312999 0 0 255
0.284907 -0.223280 0.312581 0 0 255
0.245850 -0.228750 0.308989 0 0 255
0.639100 -0.239900 -0.239105 0 0 255
0.312750 0.036900 0.399902 0 0 255
-0.684267 -0.086067 -0.414632 0 0 255
-0.802500 -0.480700 0.102798 0 0 255
0.624440 0.412560 0.225381 0 0 255
0.314550 0.359250 0.238952 0 0 255
0.114789 0.134860 0.375592 0 0 255
0.415375 0.425162 0.144886 0 0 255
-0.695550 -0.324300 -0.333576 0 0 255
-0.324988 -0.302512 0.292150 0 0 255
0.308400 -0.058550 0.389748 0 0 255
-0.845450 -0.023950 -0.407456 0 204 0
0.585320 -0.135160 -0.314496 0 204 0
-0.802500 -0.284600 -0.369003 0 0 255
0.486550 -0.106300 -0.344200 255 127 0
0.205258 -0.126052 -0.368348 0 0 255
-0.725267 -0.006333 -0.402364 0 0 255
-0.855633 0.302817 -0.004883 0 0 255
0.105086 0.333511 0.234303 0 0 255
-0.594500 -0.258500 -0.369797 0 0 255
-0.074871 0.034875 0.386169 0 0 255
-0.822650 -0.293400 -0.364998 0 0 255
-0.136667 -0.169500 0.359863 0 0 255
0.283825 0.329000 0.269100 0 0 255
-0.604475 -0.464100 0.084449 0 0 255
-0.465050 0.015088 0.377028 0 0 255
-0.894500 0.280700 -0.122101 0 204 0
0.813750 0.462550 0.182999 0 0 255
-0.126482 0.268718 -0.288745 0 0 255
-0.775500 0.122800 0.319504 0 204 0
-0.704800 0.178033 -0.317800 0 0 255
-0.824900 -0.075967 -0.414235 0 0 255
0.405300 -0.287183 0.234984 0 0 255
0.774150 0.485150 0.105255 0 0 255
-0.915250 -0.193050 0.374947 0 0 255
-0.703960 0.193900 -0.303980 0 0 255
-0.724775 -0.015250 -0.403877 0 0 255
0.284167 -0.058967 0.389862 0 0 255
-0.754300 0.020600 -0.390900 0 0 255
-0.834300 -0.386900 -0.295395 0 204 0
0.124821 -0.156088 -0.358507 0 0 255
-0.804250 -0.418350 0.224701 0 204 0
-0.645100 -0.317400 -0.337143 0 0 255
-0.844050 -0.032400 -0.408951 0 204 0
-0.145313 0.267457 -0.287681 0 0 255
0.055238 -0.094271 0.382454 0 0 255
-0.715767 -0.005967 0.372197 0 204 0
-0.574525 0.171900 0.301750 0 0 255
-0.744400 -0.489200 0.048203 0 204 0
-0.803733 -0.346233 0.297999 0 204 0
-0.545980 -0.437480 0.143945 0 0 255
-0.174306 -0.421822 0.055044 0 0 255
-0.234782 0.152712 0.341624 0 0 255
-0.854967 0.246333 -0.215536 0 204 0
-0.435471 -0.437557 0.115284 0 0 255
-0.849100 -0.043200 -0.410797 0 0 255
-0.716700 -0.359800 0.269897 0 204 0
-0.755150 0.219050 -0.267556 0 0 255
-0.725860 -0.045520 -0.408255 0 0 255
-0.596000 -0.436450 0.154949 0 0 255
0.411700 -0.121150 0.370704 0 0 255
-0.847000 -0.075550 -0.414100 0 0 255
0.509000 0.128650 -0.369599 0 0 255
-0.935000 0.278700 -0.114939 0 0 255
-0.890300 -0.290300 -0.371002 0 0 255
0.034908 0.185171 -0.354391 0 0 255
-0.833650 -0.501300 -0.043053 0 0 255
0.425392 -0.325692 -0.144492 0 0 255
0.175021 0.234896 0.332718 0 0 255
-0.726400 -0.075667 -0.409897 0 0 255
-0.392125 -0.441275 -0.122150 0 0 255
0.583700 0.203650 0.381878 0 0 255
-0.675175 -0.183925 -0.402275 0 0 255
-0.594980 0.045240 -0.396863 0 0 255
-0.174021 -0.216895 -0.358627 0 0 255
-0.234364 -0.224991 0.337721 0 0 255
-0.174600 -0.235976 -0.347599 0 0 255
-0.944250 0.264700 -0.155953 0 0 255
-0.115457 -0.282293 0.291587 0 0 255
-0.730700 0.270100 -0.201004 0 0 255
-0.545017 -0.344633 0.273783 0 0 255
0.074696 0.386371 0.124907 0 0 255
-0.355308 0.347046 -0.105539 0 0 255
0.444980 0.134730 0.394838 0 0 255
-0.932750 0.074400 0.338897 0 0 255
0.294861 0.235144 0.345288 0 0 255
-0.908900 -0.125100 -0.414147 0 0 255
0.623150 0.083650 -0.371552 0 0 255
0.214829 -0.075041 0.385641 0 0 255
0.574900 0.153983 0.395981 0 0 255
-0.854400 -0.334400 -0.341797 0 0 255
0.754960 0.365660 0.305399 0 0 255
-0.824600 -0.025800 -0.408096 0 204 0
0.477933 -0.045600 -0.373947 0 204 0
-0.105233 -0.101660 0.380224 0 0 255
0.314433 0.208833 0.359736 0 0 255
0.311000 0.229600 0.348999 0 0 255
-0.876200 -0.327900 -0.348206 0 0 255
-0.714333 0.245667 0.207403 0 0 255
-0.774800 0.271633 -0.185064 0 204 0
0.474413 0.264700 -0.336750 0 0 255
-0.876400 0.286800 0.076645 0 0 255
0.129100 -0.379900 0.088196 0 0 255
0.444918 0.134218 -0.381728 0 0 255
-0.482300 -0.379000 0.229996 0 0 255
-0.815300 -0.035900 -0.410896 0 204 0
-0.678700 -0.389300 0.238007 0 0 255
-0.153137 0.380250 -0.041587 0 0 255
-0.605200 -0.454060 0.116699 0 0 255
0.594700 0.185980 -0.327197 0 0 255
-0.215030 -0.318050 -0.288379 0 0 255
0.365033 0.154683 -0.378764 0 0 255
-0.281200 -0.439850 -0.002304 0 0 255
0.395533 0.440650 -0.082713 0 0 255
-0.816700 -0.015450 -0.407502 0 204 0
0.195125 0.405355 -0.124926 0 0 255
-0.827650 -0.044500 -0.411247 0 204 0
-0.521900 -0.459900 0.069595 0 0 255
-0.875350 -0.334900 -0.343353 0 0 255
-0.823200 -0.034000 -0.409607 0 204 0
0.125540 -0.388312 0.045071 0 0 255
-0.855000 -0.327550 -0.346451 0 0 255
0.074567 -0.397048 0.025537 0 0 255
-0.845750 0.242600 -0.242950 0 204 0
-0.806633 0.282500 -0.154902 0 204 0
-0.781400 -0.094700 0.381150 0 255 255
0.502925 -0.330750 -0.103302 0 0 255
-0.816367 -0.044833 -0.412669 0 204 0
-0.844800 -0.064600 -0.413330 0 0 255
0.031100 -0.370100 0.180695 0 0 255
-0.675000 -0.214660 0.357101 0 0 255
-0.683667 -0.242767 -0.381699 0 0 255
0.434750 -0.075233 -0.372859 0 204 0
-0.725800 -0.064967 -0.409703 0 0 255
-0.942100 0.290200 0.002854 0 0 255
-0.484562 0.343513 -0.015211 0 0 255
0.615300 -0.043650 -0.261795 0 204 0
0.174990 -0.144765 -0.362624 0 0 255
-0.885450 -0.225300 -0.396850 0 0 255
0.214654 -0.125551 -0.368079 0 0 255
-0.835850 -0.074800 -0.414146 0 0 255
0.324815 0.254885 0.335298 0 0 255
0.106175 -0.389395 -0.065283 0 0 255
-0.233725 -0.328725 0.258224 0 0 255
0.425362 -0.104669 -0.362794 0 204 0
-0.135015 -0.175000 0.357561 0 0 255
-0.705200 -0.467200 0.104299 0 0 255
-0.787500 -0.268100 0.348602 255 255 0
-0.822950 -0.065450 -0.413498 0 204 0
-0.937600 -0.503300 0.076004 0 0 255
-0.934050 -0.341550 0.312500 0 0 255
-0.905550 0.136450 -0.332596 0 0 255
-0.735700 0.005400 -0.398075 0 204 0
-0.814100 -0.489000 0.076508 0 0 255
-0.114953 -0.075014 0.384741 0 0 255
-0.335550 -0.104064 0.381071 0 0 255
-0.754967 0.014000 -0.392232 0 0 255
-0.664250 0.236400 0.226600 0 0 255
0.587300 -0.130500 -0.303207 0 204 0
-0.573900 -0.428125 0.167072 0 0 255
-0.635625 0.016000 0.368275 0 0 255
-0.755900 0.058850 -0.378846 0 0 255
-0.135274 -0.185121 0.353249 0 0 255
-0.732800 0.309900 0.046997 0 204 0
-0.792800 -0.214333 -0.403402 0 0 255
0.589100 0.118900 -0.359604 0 0 255
0.962200 -0.289800 0.046204 0 0 255
0.547400 0.135150 -0.358503 0 0 255
-0.434100 -0.455867 0.035400 0 0 255
-0.515925 0.036750 0.369823 0 0 255
-0.948200 -0.297800 -0.369598 0 0 255
-0.694450 0.084400 0.342598 0 0 255
-0.456350 -0.381350 -0.251800 0 0 255
0.324963 0.124853 -0.385138 0 0 255
-0.634600 -0.474317 0.055399 0 0 255
-0.695350 0.124250 0.322899 0 0 255
-0.964000 0.283650 -0.074745 0 0 255
-0.825650 -0.054900 -0.412499 0 204 0
0.764400 -0.243000 -0.211395 0 0 255
-0.356113 -0.054950 -0.410038 0 0 255
-0.763700 0.288850 -0.144852 0 204 0
0.444860 -0.303200 -0.184529 0 0 255
0.364809 -0.282864 0.243790 0 0 255
0.184820 0.054973 0.394264 0 0 255
-1.032500 0.018600 0.358704 0 0 255
-0.767700 -0.461600 0.162796 0 0 255
-0.737000 0.300200 0.091400 0 204 0
0.854600 0.003950 0.404053 0 204 0
-0.752200 0.310100 -0.050903 0 204 0
-0.905450 -0.234800 -0.394401 0 0 255
0.744000 0.034033 -0.382401 0 0 255
-0.154918 0.134859 0.356543 0 0 255
-0.716400 0.014767 -0.399231 0 0 255
0.484950 -0.308183 -0.166483 0 0 255
-0.813200 -0.064900 -0.413994 0 204 0
-0.706700 -0.214933 0.357701 0 204 0
0.684700 0.053467 -0.386505 0 0 255
-0.917950 0.104600 -0.353599 0 0 255
-0.793650 0.005150 0.373794 0 0 255
0.634200 -0.044650 -0.261398 0 204 0
0.034277 -0.262760 -0.301873 0 0 255
-0.174225 -0.398575 0.136893 0 0 255
0.550950 -0.340200 0.032600 0 0 255
-0.814800 -0.075267 -0.414602 0 204 0
-0.765967 0.136800 -0.337138 0 204 0
0.586350 0.168950 -0.339249 0 0 255
-0.841550 -0.053550 -0.412155 0 0 255
-0.276200 -0.400850 -0.180351 0 0 255
-0.048567 0.219633 0.319168 0 0 255
-0.684240 0.295820 0.115417 0 0 255
0.314836 0.367355 -0.226199 0 0 255
0.474971 -0.085486 -0.305483 0 204 0
0.573300 0.333650 -0.292725 0 0 255
0.304837 -0.264705 0.273957 0 0 255
-0.795250 -0.345950 -0.328750 0 204 0
-0.780300 0.189000 0.268494 0 204 0
0.763000 0.470300 0.150696 0 0 255
0.635150 0.144400 -0.350852 0 204 0
-0.888550 0.293650 0.027199 0 0 255
0.593850 -0.068250 -0.249054 0 204 0
-0.806100 -0.234800 -0.391006 0 0 255
0.593500 0.327850 -0.299255 0 0 255
0.585029 0.105086 -0.365058 0 0 255
-0.724950 -0.055500 -0.409401 0 0 255
-0.571700 -0.459500 0.089493 0 0 255
-0.817500 0.002400 -0.403900 0 204 0
-0.745620 0.004100 -0.396640 0 204 0
0.434692 0.145592 -0.377807 0 0 255
-0.875750 -0.507550 -0.013649 0 0 255
0.025990 -0.403265 0.064682 0 0 255
0.892700 -0.234300 0.235799 0 0 255
-0.725040 0.015960 -0.397360 0 0 255
0.096293 -0.379193 0.106578 0 0 255
-0.750000 0.028000 -0.389496 0 0 255
-0.805150 -0.471100 -0.161247 0 204 0
-0.555386 0.295443 0.154973 0 0 255
0.154080 -0.299280 0.248956 0 0 255
-0.754000 0.052167 -0.381169 0 0 255
-0.714167 0.313100 -0.065537 0 0 255
-0.485517 -0.446483 0.104599 0 0 255
-0.735260 0.046120 -0.386780 0 0 255
0.495900 -0.288550 -0.199249 0 0 255
0.575700 -0.289467 -0.177897 0 0 255
-0.405625 -0.145142 0.374325 0 0 255
-0.676325 0.216500 -0.285351 0 0 255
0.344581 0.115019 -0.387413 0 0 255
-0.695233 0.034633 0.362834 0 0 255
-0.735467 0.055500 -0.383601 0 0 255
-0.742867 0.163100 -0.323532 0 0 255
0.514825 -0.287937 -0.196066 0 0 255
0.245097 -0.015247 -0.392400 0 0 255
0.344988 0.104931 -0.389077 0 0 255
-0.305207 -0.324127 -0.293472 0 0 255
0.486350 -0.070950 -0.268502 0 204 0
-0.755900 0.045867 -0.382996 0 0 255
-0.675240 -0.034760 -0.412039 0 0 255
-0.355843 -0.431057 -0.132799 0 0 255
-0.444200 -0.348250 -0.288475 0 0 255
-0.696225 0.145025 -0.344200 0 0 255
-0.674580 -0.013100 -0.409097 0 0 255
-0.745100 0.055167 -0.381963 0 0 255
-0.733075 0.165425 -0.323227 0 0 255
-0.007043 -0.400457 -0.082360 0 0 255
0.605333 -0.188367 0.318370 0 0 255
-0.636300 -0.479650 0.026398 0 0 255
-0.816050 -0.105950 -0.414993 0 0 255
-0.726967 0.044600 -0.388972 0 0 255
-0.837433 -0.114467 -0.414668 0 255 255
-0.775550 0.063900 -0.373024 0 0 255
0.843850 0.301600 0.362305 0 0 255
0.805167 0.285267 0.367167 0 0 255
-0.684300 -0.348950 0.278854 0 0 255
0.364767 -0.066800 0.388979 0 0 255
0.731500 -0.240800 -0.220398 0 0 255
-0.732000 -0.381000 -0.281296 0 204 0
0.037950 -0.239600 -0.319450 0 0 255
-0.369600 -0.400800 0.181000 0 0 255
-0.673800 -0.314950 -0.341552 0 0 255
-0.604440 -0.423800 -0.215042 0 0 255
-0.838400 0.193700 -0.302200 0 204 0
0.846000 0.422500 -0.223099 0 0 255
0.305005 0.194800 0.365438 0 0 255
-0.794050 0.255800 0.184654 0 204 0
-0.705800 -0.252500 0.342202 0 0 255
0.694380 -0.304900 -0.103784 0 0 255
0.903333 0.434333 -0.215073 0 204 0
0.921100 0.144000 -0.381150 0 0 255
-0.727000 0.127200 0.319199 0 0 255
-0.524787 -0.065588 -0.413265 0 0 255
0.836333 -0.095133 0.366933 0 0 255
-0.484240 -0.408480 -0.216559 0 0 255
-0.675400 -0.295000 -0.354599 0 0 255
-0.875000 0.254500 0.164353 0 204 0
-0.604400 -0.442150 0.144924 0 0 255
-0.084696 -0.401916 -0.114332 0 0 255
-0.766300 0.065167 -0.374166 0 0 255
0.214256 -0.281489 -0.261612 0 0 255
-0.744680 0.094760 -0.365644 0 0 255
0.308800 0.350300 0.250198 0 0 255
0.034735 -0.275026 0.284408 0 0 255
-0.720900 -0.488000 -0.026596 0 204 0
-0.634520 0.313140 0.085504 0 0 255
0.365277 0.244485 0.346656 0 0 255
-0.893050 -0.145500 -0.413101 0 0 255
-0.771750 0.027450 -0.385598 0 0 255
0.415007 0.044900 -0.393020 0 0 255
0.385173 0.314209 -0.293274 0 0 255
0.385500 0.099100 -0.389900 0 0 255
0.144950 0.372995 -0.184946 0 0 255
-0.773800 0.046800 -0.378845 0 0 255
0.295082 -0.335441 0.165218 0 0 255
-0.574300 -0.438700 -0.179092 0 0 255
-0.745250 0.065300 -0.378147 0 0 255
-0.265058 -0.207267 0.348957 0 0 255
-0.944500 -0.341600 -0.343796 0 0 255
-0.876400 -0.383850 -0.303848 0 0 255
-0.915950 0.288600 0.043999 0 0 255
-0.395144 -0.366478 0.235689 0 0 255
0.414264 0.114918 -0.387709 0 0 255
0.654350 -0.196900 0.306675 0 0 255
0.364783 -0.173925 0.343463 0 0 255
-0.894650 0.115200 0.317596 0 0 255
0.474500 0.183433 -0.351585 0 0 255
-0.726967 0.074033 -0.378530 0 0 255
0.395867 0.105422 -0.388833 0 0 255
-0.265143 -0.125117 0.376831 0 0 255
-0.840550 0.196700 -0.296249 0 204 0
-0.954100 0.285100 0.043045 0 0 255
0.724400 -0.313300 -0.055196 0 0 255
-0.615750 -0.115683 0.378650 0 0 255
-0.574200 0.331533 0.015116 0 0 255
0.424920 0.065520 -0.392560 0 0 255
0.424025 0.429075 0.137299 0 0 255
-0.766300 0.017250 -0.389252 0 0 255
-0.897600 0.190200 -0.284302 0 204 0
0.265123 -0.164887 -0.346474 0 0 255
0.457325 -0.054869 -0.295186 0 204 0
0.245140 0.256353 0.327889 0 0 255
-0.715800 -0.044050 -0.409500 0 0 255
-0.715417 -0.064300 -0.411151 0 0 255
-0.924750 0.105250 0.321953 0 0 255
-0.704700 -0.434967 -0.204732 0 204 0
-0.952200 -0.513750 0.024551 0 0 255
0.064349 -0.093900 0.382109 0 0 255
-0.763533 -0.005600 -0.395101 0 0 255
0.182000 -0.170700 -0.350204 0 0 255
-0.205253 -0.065541 0.385178 0 0 255
0.203847 0.167447 0.368672 0 0 255
0.203827 0.248018 0.328590 0 0 255
0.084974 -0.362485 0.154667 0 0 255
-0.962200 0.260100 0.131500 0 0 255
-0.725200 0.181150 -0.312149 0 0 255
0.244783 -0.174817 0.345552 0 0 255
-0.883400 0.271900 0.121796 0 0 255
-0.074896 -0.005012 0.388955 0 0 255
0.665550 -0.301550 0.152100 0 0 255
-0.722267 0.312967 0.026199 0 0 255
-0.344720 -0.225013 0.343554 0 0 255
-0.144839 0.183116 -0.351651 0 0 255
0.654680 -0.315060 0.114798 0 0 255
-0.734000 0.314580 -0.024618 0 204 0
0.485570 -0.256340 -0.246219 0 0 255
0.465283 0.342967 0.282583 0 0 255
-0.754560 -0.005040 -0.396680 0 0 255
-0.496350 -0.389450 -0.247902 0 0 255
-0.833750 -0.316500 0.321198 0 204 0
-0.744175 0.016150 -0.393776 0 204 0
-0.727000 0.006000 -0.399452 0 0 255
0.885633 0.134333 0.415599 0 0 255
-0.904550 -0.126500 0.383255 0 0 255
-0.747500 0.268300 -0.197601 0 0 255
0.594760 -0.104060 -0.245819 0 204 0
-0.762800 -0.015050 -0.397301 0 0 255
-0.445978 0.222778 0.273390 0 0 255
-0.763733 -0.024600 -0.398829 0 0 255
-0.854833 0.227600 0.213999 0 255 255
0.515500 -0.230400 0.290207 0 0 255
-0.115337 -0.301012 -0.291140 0 0 255
-0.004621 0.376146 0.125217 0 0 255
-0.758350 -0.022650 -0.399505 0 0 255
-0.804200 0.206400 0.255493 0 204 0
-0.755750 -0.015100 -0.398606 0 0 255
0.501300 -0.078100 -0.270798 0 204 0
0.424709 -0.164764 0.346538 0 0 255
-0.785750 0.264850 -0.195152 0 204 0
0.025168 0.381872 -0.135047 0 0 255
-0.735340 0.311800 0.024320 0 204 0
-0.335189 0.074958 0.367952 0 0 255
0.413667 0.230800 -0.350499 0 0 255
-0.405600 -0.195791 -0.384809 0 0 255
-0.722333 0.315433 -0.024333 0 0 255
0.555371 -0.308129 -0.145501 0 0 255
0.104871 0.382905 -0.154816 0 0 255
0.474383 0.342533 0.283198 0 0 255
0.294920 -0.270940 -0.261124 0 0 255
-0.745300 -0.005967 -0.398631 0 204 0
-0.953150 -0.514800 0.013954 0 0 255
-0.090100 -0.370000 0.178604 0 0 255
0.595250 0.376875 0.265648 0 0 255
0.513900 0.379500 0.248993 0 0 255
-0.674640 -0.234380 -0.385638 0 0 255
-0.765600 0.266500 -0.196296 0 204 0
-0.224494 0.232888 -0.312352 0 0 255
-0.852440 0.265440 0.174680 0 0 255
0.104866 0.275440 0.296085 0 0 255
0.464546 -0.054823 -0.334778 0 204 0
-0.748300 -0.013200 -0.399704 0 0 255
-0.796600 0.293267 -0.125168 0 204 0
-0.244827 -0.287382 0.298281 0 0 255
-0.004600 0.370938 -0.152639 0 0 255
-0.225476 -0.402106 -0.164712 0 0 255
-0.065088 -0.203092 0.341434 0 0 255
-0.892200 0.150600 -0.322601 0 204 0
-0.085332 -0.214037 -0.352315 0 0 255
0.544625 -0.301550 -0.162674 0 0 255
-0.085241 -0.233003 -0.341687 0 0 255
-0.761050 -0.057300 -0.404251 0 204 0
0.204500 -0.014849 0.395045 0 0 255
-0.035830 -0.026443 0.389804 0 0 255
-0.104597 -0.225865 -0.347610 0 0 255
0.175048 0.214839 0.344365 0 0 255
-0.884050 0.274100 -0.146302 0 204 0
0.204030 0.317940 0.268131 0 0 255
0.814700 0.499600 0.003357 0 204 0
0.400300 -0.250200 0.280197 0 0 255
-0.861800 -0.433100 0.213303 0 0 255
0.805350 -0.026725 0.396500 0 0 255
-0.752950 0.310700 -0.044998 0 204 0
-0.282500 -0.210000 -0.369995 0 0 255
-0.841100 -0.427500 0.217804 0 0 255
0.375700 -0.007500 0.399687 0 0 255
0.464457 -0.095700 -0.334713 0 204 0
-0.764800 -0.043800 -0.401794 0 0 255
-0.735450 -0.005000 0.366852 0 204 0
-0.681900 -0.309900 0.308701 0 0 255
-0.496200 -0.388850 0.219200 0 0 255
-0.761600 -0.065300 -0.404396 0 0 255
0.585420 0.275740 0.348160 0 0 255
-0.164993 0.261707 -0.291915 0 0 255
-0.899800 0.288400 -0.085693 0 0 255
0.502400 -0.089350 -0.291305 0 204 0
-0.823650 -0.343350 -0.332695 0 204 0
-0.822700 -0.166700 -0.409195 0 255 255
-0.706350 0.085850 -0.376949 0 0 255
0.564000 -0.134800 -0.334943 0 204 0
-0.865350 -0.407700 -0.277451 0 0 255
0.465175 -0.342738 -0.074600 0 0 255
-0.945700 -0.184467 -0.407903 0 0 255
0.593700 -0.182250 -0.302002 0 204 0
0.594440 -0.325540 -0.073959 0 0 255
-0.405300 -0.330667 -0.300898 0 0 255
-0.765100 0.273150 -0.184502 0 204 0
-0.304781 0.362925 -0.015374 0 0 255
-0.325281 -0.115381 0.378732 0 0 255
-0.115646 -0.202792 -0.361045 0 0 255
-0.684200 -0.134533 -0.411535 0 0 255
-0.623940 -0.285940 -0.356583 0 0 255
0.565238 -0.155100 -0.325100 0 0 255
-0.832300 -0.487600 -0.121994 0 0 255
-0.734950 0.096050 -0.366901 0 0 255
-0.663900 -0.483160 0.004938 0 0 255
0.461542 -0.064817 -0.335084 0 204 0
-0.923800 0.211150 -0.255798 0 0 255
0.544433 -0.268833 -0.217931 0 0 255
-0.254238 -0.399275 -0.177849 0 0 255
