ply
format ascii 1.0
element vertex 1303
property float x
property float y
property float z
property uchar red
property uchar green
property uchar blue
end_header
0.124867 0.321675 0.252001 255 255 0
-0.115295 -0.418785 -0.034986 0 0 255
-0.715600 -0.095425 0.377777 0 204 0
0.344675 0.425913 -0.115852 0 0 255
-0.554250 -0.397900 -0.245354 0 0 255
0.727100 0.442050 -0.174607 0 0 255
0.605260 0.355440 -0.275739 0 0 255
0.538200 -0.082400 -0.249802 255 127 0
-0.806600 -0.082050 0.388000 0 204 0
0.254715 -0.065139 0.388920 255 255 0
-0.998400 0.182100 -0.281601 0 0 255
-0.204143 -0.268143 0.308914 0 0 255
0.134924 -0.075063 0.386712 255 255 0
-0.155218 0.353414 0.134885 0 0 255
-0.334773 -0.175393 -0.387986 0 0 255
-0.134545 0.151218 0.350401 0 0 255
0.064489 0.225743 0.327479 255 255 0
-0.616200 -0.293900 -0.351430 0 0 255
-0.594533 -0.265467 -0.366269 0 0 255
0.545625 0.372950 0.262623 0 0 255
0.124985 0.315033 -0.265191 0 0 255
-0.523950 -0.299050 0.309097 0 0 255
-0.673200 0.211650 0.252250 0 0 255
-0.474690 0.263270 -0.254797 0 0 255
-0.915050 0.274450 -0.134896 0 204 0
-0.055172 0.234980 -0.323665 0 0 255
0.254746 -0.291854 -0.242068 0 0 255
0.206726 0.095517 -0.388505 0 0 255
0.194782 0.235115 -0.336172 0 0 255
0.225155 -0.053555 0.391250 255 255 0
0.574357 -0.296800 0.185344 0 0 255
0.344883 -0.364408 -0.024816 0 0 255
0.884267 0.214867 0.401499 0 0 255
-0.907100 -0.451850 0.191994 0 0 255
0.604340 -0.316600 -0.103482 0 0 255
-0.071600 -0.169050 -0.369507 0 0 255
-0.625100 0.324350 -0.064850 0 0 255
0.614433 -0.247833 0.257467 0 0 255
-0.811400 0.069400 0.356003 0 204 0
0.417700 -0.229000 0.299606 255 255 0
-0.415256 -0.344433 0.263211 0 0 255
-0.757200 -0.502400 -0.043900 0 204 0
0.754500 -0.213700 0.280899 0 0 255
0.245929 0.088086 -0.389825 0 0 255
0.074614 -0.098346 0.379359 0 0 255
0.763400 0.483867 0.105698 0 0 255
0.703250 -0.210800 -0.261253 0 0 255
-0.494878 -0.284944 0.316581 0 0 255
-0.324990 0.360750 0.004500 0 0 255
-0.465633 -0.457950 -0.075185 0 0 255
-0.745620 0.004100 -0.396640 0 204 0
-0.965600 0.277800 -0.104156 0 0 255
-0.448100 -0.401600 -0.220703 0 0 255
-0.644600 -0.432100 0.172262 0 204 0
-0.125200 0.176486 0.338074 0 0 255
-0.535688 -0.074788 -0.413260 0 0 255
-0.074942 0.306095 0.235282 0 0 255
0.824667 0.085333 0.414831 0 0 255
-0.855325 0.203000 0.245022 0 204 0
0.034427 0.388973 -0.116435 0 0 255
-0.745400 0.184825 -0.304550 0 204 0
-0.996100 0.239100 0.169006 0 0 255
0.104600 0.357683 0.195674 255 255 0
0.735980 0.104680 0.411420 0 0 255
0.355180 0.104733 0.397146 255 255 0
-0.225081 0.267187 0.257387 0 0 255
0.294920 -0.270940 -0.261124 0 0 255
-0.484550 -0.361850 0.250755 0 0 255
0.214904 0.254875 -0.324608 0 0 255
-0.667500 -0.401550 0.222450 0 204 0
0.326200 -0.339500 0.148800 0 0 255
-0.274127 -0.187427 -0.379063 0 0 255
0.184747 0.374189 0.184848 0 0 255
0.665667 0.430867 0.204864 0 0 255
0.183450 0.399700 0.128399 0 0 255
-0.604343 0.215857 -0.294732 0 0 255
-0.434980 -0.232500 -0.371320 0 0 255
0.886850 0.443500 0.235900 0 0 255
-0.334325 0.257912 -0.277937 0 0 255
0.787500 -0.299200 0.117599 0 0 255
-0.175115 0.217350 -0.328115 0 0 255
-0.215391 0.174566 0.332698 0 0 255
0.670800 0.106500 -0.369293 160 33 239
-0.235036 -0.287550 -0.317837 0 0 255
0.544533 0.155017 0.394269 0 0 255
0.863450 0.427500 0.253807 0 0 255
0.463987 -0.044947 -0.314619 255 127 0
0.345071 -0.352221 0.105192 0 0 255
-0.374400 -0.371050 -0.251503 0 0 255
-0.025199 -0.064941 0.386116 0 0 255
-0.643675 -0.086325 0.379276 0 0 255
-0.633275 0.084525 -0.381801 0 0 255
-0.682650 -0.288050 -0.358849 0 204 0
0.825333 -0.284967 -0.115468 0 0 255
0.515050 0.145433 0.394648 0 0 255
0.444686 -0.328400 0.145497 0 0 255
0.134795 0.254792 0.315006 255 255 0
-0.435850 -0.264230 0.326689 0 0 255
0.842800 -0.305500 0.004555 0 0 255
-0.524957 -0.275229 0.324700 0 0 255
-0.444750 -0.014100 -0.409602 0 0 255
-0.326900 -0.320400 -0.300400 0 0 255
-0.845500 -0.294300 -0.365799 0 204 0
0.115014 0.368729 0.177355 0 0 255
-0.104875 0.316397 0.215277 0 0 255
0.385500 0.243511 -0.342568 0 0 255
-0.732900 0.191200 -0.301407 0 204 0
-0.908300 -0.115367 0.383667 0 204 0
-0.575471 -0.214443 0.356358 0 0 255
-0.324186 -0.261886 0.321228 0 0 255
0.405714 0.432929 -0.115128 0 0 255
0.707500 0.075833 0.410863 0 0 255
-0.633767 0.146967 -0.347666 0 0 255
-0.514820 -0.316020 0.296084 0 0 255
-0.733850 0.258550 -0.218300 0 204 0
0.311400 0.399600 0.168396 0 0 255
-0.775000 -0.416100 0.225425 0 204 0
0.445233 0.383089 -0.224667 0 0 255
0.294384 -0.224896 -0.304471 0 0 255
0.175025 -0.328000 0.207073 255 255 0
0.404908 -0.176415 -0.327315 0 0 255
-0.563767 0.132000 -0.361135 0 0 255
-0.405273 0.318309 -0.174273 0 0 255
-0.925550 0.253200 -0.186905 0 204 0
-0.455260 0.252140 0.241702 0 0 255
-0.255083 0.327761 0.165265 0 0 255
0.024356 0.403024 0.004701 0 0 255
-0.781000 0.212600 0.242905 0 204 0
-0.923400 -0.166200 0.336395 255 0 255
0.414250 -0.352000 0.065100 0 0 255
0.511100 -0.087700 -0.281494 255 127 0
-0.475378 0.342333 0.024365 0 0 255
0.234078 0.371011 0.203054 0 0 255
-0.738500 -0.259000 0.339798 0 204 0
-0.555550 0.334650 -0.015465 0 0 255
-0.887000 -0.215200 0.368950 0 204 0
0.204910 0.283475 -0.303115 0 0 255
0.675600 -0.248800 -0.219406 0 0 255
-0.961700 -0.025100 -0.404801 0 0 255
-0.166800 0.229150 0.299499 0 0 255
-0.813800 0.212800 0.250000 0 204 0
0.434744 -0.262600 0.263680 255 255 0
-0.454250 -0.005638 0.380611 0 0 255
-0.215300 -0.251440 0.320862 0 0 255
-0.134789 0.252943 -0.302747 0 0 255
0.806450 0.418200 0.255402 0 0 255
-0.075015 0.332821 -0.214967 0 0 255
-0.822900 -0.354800 -0.323700 0 204 0
-0.567500 -0.410300 -0.230103 0 0 255
-0.424890 -0.294490 0.306230 0 0 255
0.514750 0.018900 -0.390351 0 0 255
-0.505500 0.037650 0.369751 0 0 255
-0.614150 0.198350 -0.307099 0 0 255
0.106175 -0.389395 -0.065283 0 0 255
-0.574850 -0.305600 0.306621 0 0 255
0.084818 0.236415 -0.327942 0 0 255
0.227700 0.400600 0.140396 0 0 255
0.535320 0.085460 -0.384250 160 33 239
-0.084777 -0.154915 0.364485 0 0 255
0.302050 -0.370100 -0.018303 0 0 255
0.713200 0.111900 0.410294 0 0 255
0.244971 -0.322286 0.202629 255 255 0
-0.294500 -0.035452 -0.407753 0 0 255
0.865950 -0.166350 0.316002 0 0 255
-0.597250 -0.168750 0.369499 0 0 255
0.155145 -0.196055 -0.337402 0 0 255
-0.405291 0.074273 -0.391116 0 0 255
-0.094075 -0.409492 -0.086849 0 0 255
-0.524850 0.317900 -0.144732 0 0 255
0.214547 -0.182133 -0.341194 0 0 255
0.859000 -0.302650 -0.017303 0 0 255
-0.836600 -0.224100 0.364303 0 204 0
0.514488 -0.317237 0.154890 0 0 255
-0.961400 0.286500 0.023903 0 0 255
0.185090 -0.338324 0.185185 255 255 0
0.374400 0.379333 -0.218068 0 0 255
-0.993600 0.263250 -0.145203 0 0 255
0.751500 -0.221300 0.272003 0 0 255
0.735725 -0.317550 0.034222 0 0 255
0.194374 0.345126 0.234806 255 255 0
0.874167 0.503967 0.064997 0 0 255
0.543986 -0.145471 -0.333328 0 0 255
0.495655 0.194745 -0.343927 160 33 239
0.914400 0.267250 0.385750 0 0 255
-0.784800 0.157150 0.296699 0 204 0
0.605700 -0.333900 0.013874 0 0 255
-0.616060 -0.405620 -0.245120 0 0 255
0.344479 -0.215295 -0.306333 0 0 255
-0.424590 -0.376920 0.225297 0 0 255
-0.665325 -0.483025 -0.035724 0 204 0
-0.434990 -0.164910 -0.397081 0 0 255
0.091300 0.189800 0.359604 255 0 0
0.114622 -0.302785 -0.253092 0 0 255
0.465286 0.457614 0.034485 0 0 255
0.065124 -0.365840 0.154386 255 0 0
-0.395250 -0.359650 -0.269104 0 0 255
-0.171500 0.340400 -0.180496 0 0 255
-0.614820 0.025380 -0.402502 0 0 255
-0.565443 -0.115314 0.379443 0 0 255
-0.604750 0.026075 -0.402149 0 0 255
-1.003350 0.145600 0.285896 0 0 255
0.914700 0.453500 0.225601 0 0 255
0.925600 0.075200 -0.381454 0 0 255
0.661600 0.318300 -0.309601 0 0 255
0.645900 0.477600 -0.035751 0 0 255
-0.025573 -0.401164 0.073848 0 0 255
0.764367 0.433333 0.225464 0 0 255
0.645675 0.335475 -0.295452 0 0 255
-0.635000 -0.408400 0.209000 0 204 0
-0.354822 -0.392111 0.193955 0 0 255
-0.555386 0.295443 0.154973 0 0 255
0.536100 0.371300 0.262797 0 0 255
0.664000 0.448950 -0.147049 0 0 255
-0.783600 -0.358300 -0.316795 0 204 0
0.484567 -0.107683 -0.358165 0 0 255
0.397150 -0.189600 -0.319496 0 0 255
0.526075 -0.339650 0.067249 0 0 255
0.186292 0.410785 0.093730 0 0 255
0.435833 -0.335044 -0.114600 0 0 255
-0.596533 0.319333 0.076996 0 0 255
0.370150 -0.350400 0.101746 0 0 255
0.475467 -0.042867 -0.261134 255 127 0
-0.464811 0.345500 -0.045310 0 0 255
0.557080 0.468700 -0.025800 0 0 255
0.826000 -0.208500 0.279205 0 0 255
-1.032500 0.018600 0.358704 0 0 255
-0.033760 -0.409680 0.015353 0 0 255
-0.830000 -0.202300 0.370499 0 204 0
-0.943700 -0.503500 -0.113403 0 0 255
-0.654400 0.293600 0.136380 0 0 255
0.709200 -0.269900 0.209106 0 0 255
0.945200 -0.279300 -0.086899 0 0 255
0.554920 -0.173060 0.332599 0 0 255
0.015235 -0.384480 0.155043 255 0 0
-0.424837 -0.322938 0.284214 0 0 255
-0.294595 0.015281 -0.404543 0 0 255
0.204971 -0.375295 -0.074677 0 0 255
0.806750 0.497250 0.054398 0 0 255
-0.854900 0.222000 -0.251900 0 204 0
0.185600 0.210800 -0.350494 0 0 255
0.337925 0.440325 0.043053 0 0 255
-0.414767 -0.184744 0.363323 0 0 255
-0.306250 0.080550 -0.390602 0 0 255
-0.813950 -0.451700 0.174347 0 204 0
0.258250 0.400800 0.150848 0 0 255
-0.823150 -0.463200 0.153496 0 204 0
-0.435175 0.346250 -0.055050 0 0 255
0.085158 0.381233 0.142540 0 0 255
-0.374882 -0.026346 -0.410156 0 0 255
-0.684875 0.308850 -0.113621 0 0 255
-0.465356 0.273711 0.213747 0 0 255
-0.677400 0.220700 -0.280502 0 0 255
0.435500 -0.248867 0.278463 255 255 0
0.524300 -0.056700 0.389450 0 0 255
0.205500 0.400433 -0.141729 0 0 255
-0.654250 -0.458500 0.117798 0 204 0
-0.832767 -0.495900 0.054764 0 204 0
0.378300 -0.359800 0.039200 0 0 255
-0.445212 0.346225 0.015589 0 0 255
0.414900 -0.317869 -0.164855 0 0 255
0.305089 0.315006 -0.284584 0 0 255
-0.264850 -0.414486 -0.144952 0 0 255
0.014748 0.256976 0.297865 0 0 255
-0.655525 0.313825 0.073978 0 0 255
-0.355843 -0.431057 -0.132799 0 0 255
-0.384610 -0.428400 0.124768 0 0 255
-0.702250 -0.485200 -0.024552 0 204 0
-0.125107 -0.024998 0.388790 0 0 255
-0.174829 0.212476 -0.331792 0 0 255
-0.184808 0.114497 -0.381301 0 0 255
-0.305369 0.247138 0.266996 0 0 255
0.446800 0.209400 -0.339706 160 33 239
-0.384885 0.316231 0.154984 0 0 255
-0.082189 0.390167 0.004888 0 0 255
-0.177750 0.359600 0.108802 0 0 255
0.254517 0.175065 -0.368412 0 0 255
0.852833 0.392900 0.292897 0 0 255
0.434893 -0.255314 -0.255264 0 0 255
0.960000 0.105600 0.418503 0 0 255
-0.034794 0.332638 0.204889 0 0 255
-0.585050 0.297133 0.144770 0 0 255
-0.453500 -0.024712 0.382687 0 0 255
-0.054762 -0.166679 0.358086 0 0 255
-0.455925 -0.024362 -0.410938 0 0 255
0.556900 0.441300 0.153595 0 0 255
0.556800 -0.310100 0.160706 0 0 255
1.005150 -0.273250 0.113503 0 0 255
0.902950 -0.233050 0.236152 0 0 255
0.505200 0.458767 -0.055832 0 0 255
-0.062100 -0.239200 0.319504 0 0 255
-0.951600 0.211900 0.220093 0 0 255
-0.344888 -0.055453 -0.409536 0 0 255
-0.855100 0.312400 -0.065498 0 204 0
0.284667 -0.174962 0.345409 255 255 0
-0.184914 0.274731 0.255095 0 0 255
0.865750 -0.075150 0.375603 0 0 255
-0.677400 0.247033 -0.248199 0 0 255
0.324682 -0.324741 -0.175354 0 0 255
0.625533 0.406133 -0.217702 0 0 255
0.915050 0.496650 -0.086700 0 0 255
0.015537 0.313328 -0.254100 0 0 255
-0.284233 -0.439617 -0.037147 0 0 255
0.125104 -0.267570 -0.287690 0 0 255
-0.616167 -0.334317 0.286466 0 0 255
0.790400 0.298800 0.358200 0 0 255
-0.665650 -0.252000 0.341247 0 204 0
0.864200 0.282900 -0.340698 0 0 255
-0.565850 -0.014100 0.378525 0 0 255
0.605200 -0.290400 0.192596 0 0 255
0.054851 -0.233651 -0.322537 0 0 255
-0.215200 -0.375122 -0.214759 0 0 255
0.926900 0.177850 -0.376556 0 0 255
-0.566050 -0.431050 -0.193504 0 0 255
-0.345511 -0.435500 -0.114309 0 0 255
-0.365900 -0.361700 -0.262077 0 0 255
0.264765 -0.225762 -0.306361 0 0 255
-0.195288 -0.321588 0.261387 0 0 255
-0.844450 -0.215750 -0.398049 0 204 0
0.445125 0.255900 0.348171 255 255 0
0.744767 0.436133 0.215332 0 0 255
-0.449500 -0.450500 -0.102493 0 0 255
-0.514650 -0.344263 -0.302551 0 0 255
0.735300 -0.302467 -0.094803 0 0 255
-0.024750 -0.356350 -0.205399 0 0 255
0.516700 0.429800 0.167099 0 0 255
0.787650 0.143600 0.410751 0 0 255
0.284934 -0.015279 -0.391876 0 0 255
0.174975 0.334018 0.244860 255 255 0
0.234935 -0.155035 0.356004 255 255 0
-0.675867 0.087400 -0.379034 0 0 255
0.536400 -0.161633 0.341202 0 0 255
0.493625 0.440850 0.132625 0 0 255
-0.951200 -0.263700 -0.385300 0 0 255
-0.935375 0.174050 0.266125 0 204 0
0.724200 -0.280000 -0.157303 0 0 255
0.125107 0.343474 0.224510 255 255 0
-0.724200 -0.433640 -0.204538 0 204 0
0.424775 -0.330600 -0.132599 0 0 255
-0.474650 -0.241600 0.340824 0 0 255
-0.045386 -0.284000 0.283033 0 0 255
0.876500 0.167300 -0.378395 0 0 255
0.038500 0.310800 -0.260193 0 0 255
-0.205204 -0.185181 0.355837 0 0 255
0.773533 -0.301633 0.114065 0 0 255
0.215396 0.164657 0.371849 255 255 0
0.574900 -0.172500 -0.311924 0 0 255
0.154729 0.317267 -0.266564 0 0 255
0.405743 -0.349329 -0.076442 0 0 255
-0.083771 0.340471 0.181789 0 0 255
0.785650 -0.277000 -0.147346 0 0 255
-0.873600 0.098300 0.329300 0 204 0
0.915500 0.275833 -0.345932 0 0 255
0.795200 0.304367 -0.325801 0 0 255
-0.084830 0.104129 0.371233 0 0 255
0.215179 -0.256272 -0.286737 0 0 255
0.005415 0.191693 0.341284 0 0 255
-0.604900 0.021300 0.370605 0 0 255
-0.294950 0.267300 0.246131 0 0 255
0.980200 0.092900 -0.380493 0 0 255
-0.004556 0.396448 -0.055424 0 0 255
-0.444467 -0.446850 -0.114466 0 0 255
-0.215507 -0.421107 0.084056 0 0 255
0.913467 -0.136500 0.335933 0 0 255
0.153745 0.202318 0.353067 255 0 0
0.475840 -0.318780 -0.146582 0 0 255
-0.505000 0.234760 0.254833 0 0 255
-0.305050 -0.380775 0.200798 0 0 255
-0.805450 -0.405000 -0.272552 0 204 0
0.952200 -0.004700 0.400696 0 0 255
0.583980 0.304280 -0.316477 0 0 255
0.835100 0.104800 0.415352 0 0 255
0.215769 0.035312 -0.393884 0 0 255
-0.564760 -0.416920 0.185461 0 0 255
0.345583 -0.358950 0.075251 0 0 255
-0.055200 -0.292322 -0.292405 0 0 255
0.994400 -0.118400 -0.306305 0 0 255
0.335200 0.300825 -0.300854 0 0 255
-0.836000 -0.463700 -0.186607 0 204 0
-0.874000 0.014333 0.365962 0 204 0
0.884950 0.025400 -0.375953 0 0 255
0.772700 0.493450 -0.026550 0 0 255
0.835050 -0.241850 0.234352 0 0 255
-0.323600 -0.129400 -0.399505 0 0 255
0.045660 -0.179480 0.349579 0 0 255
-0.103286 -0.238857 -0.339456 0 0 255
-0.958450 -0.154950 -0.412246 0 0 255
0.455967 0.182433 0.380999 255 255 0
0.920700 0.267400 -0.349701 0 0 255
-0.085195 -0.222535 0.331729 0 0 255
0.544587 0.115187 -0.366274 160 33 239
-0.814833 -0.456033 0.166336 0 204 0
-0.871200 -0.488600 -0.135300 0 0 255
0.265754 0.427254 0.064508 0 0 255
-0.834600 -0.476667 0.125433 0 204 0
-0.274743 0.077657 0.369378 0 0 255
-0.475950 -0.455800 0.064586 0 0 255
0.036350 0.270050 0.290352 255 255 0
0.817500 -0.258200 -0.177002 0 0 255
-0.724200 -0.349700 0.279297 0 204 0
0.095219 -0.368850 0.137018 0 0 255
0.868550 0.156400 0.412796 0 0 255
-0.234483 0.118183 -0.379266 0 0 255
-0.543680 -0.044740 -0.413339 0 0 255
0.015200 -0.264582 0.295092 0 0 255
0.154832 0.224984 0.336801 255 255 0
0.311800 0.159500 0.379898 255 255 0
-0.065190 0.363710 -0.155391 0 0 255
0.255035 0.084961 0.395375 255 255 0
-0.405625 0.328950 0.117149 0 0 255
0.793733 0.482000 0.124868 0 0 255
-0.864500 0.084800 0.337235 0 204 0
0.225003 -0.155003 -0.354619 0 0 255
0.374940 -0.142360 0.360800 255 255 0
0.454663 0.432288 -0.135063 0 0 255
-0.165391 0.374687 -0.074800 0 0 255
-0.956250 -0.154000 0.381698 0 0 255
0.564275 0.373425 0.264500 0 0 255
0.683125 0.482875 0.046128 0 0 255
-1.011300 -0.053650 0.377754 0 0 255
0.834600 -0.272600 -0.143966 0 0 255
-0.876500 -0.313950 0.325798 0 204 0
-0.405527 0.116027 0.348217 0 0 255
0.252580 -0.360400 -0.111661 0 0 255
-0.004500 0.343022 0.194732 0 0 255
0.782900 -0.200900 -0.260498 0 0 255
0.524490 -0.125360 -0.346272 0 0 255
-0.434657 0.341900 -0.085271 0 0 255
0.434744 0.345511 0.275445 255 255 0
0.663633 -0.327217 0.014432 0 0 255
0.075411 0.380511 0.141642 0 0 255
0.793550 0.264050 0.376503 0 0 255
0.613317 -0.333000 0.025563 0 0 255
0.543567 -0.241900 -0.252797 0 0 255
-0.074963 -0.254981 -0.325998 0 0 255
0.845350 0.472250 -0.137154 0 0 255
0.764400 -0.243000 -0.211395 0 0 255
-0.875650 0.172900 0.273201 0 204 0
0.134852 0.243507 0.322919 255 255 0
0.584200 0.472875 -0.004799 0 0 255
0.644460 -0.316780 -0.085699 0 0 255
-0.044938 0.324859 0.214808 0 0 255
0.736500 -0.112450 0.361748 0 0 255
-1.005050 0.177800 -0.285347 0 0 255
-0.484700 0.095511 -0.382345 0 0 255
0.894450 0.316500 -0.323906 0 0 255
-0.446530 -0.025280 -0.410670 0 0 255
0.105806 0.410656 -0.044927 0 0 255
0.680500 -0.201900 0.300598 0 0 255
0.868700 0.158900 -0.379593 0 0 255
0.155112 0.368106 -0.196371 0 0 255
0.704700 -0.232775 -0.235348 0 0 255
-0.144843 -0.317971 -0.278035 0 0 255
0.305150 -0.367262 0.045472 0 0 255
-0.506450 0.339317 -0.054334 0 0 255
-0.004756 -0.403660 0.045165 0 0 255
-0.145238 0.368012 0.095514 0 0 255
-0.833700 -0.233300 -0.392197 0 204 0
0.775167 0.441967 0.213699 0 0 255
0.254992 0.284892 -0.305887 0 0 255
0.405500 0.430667 -0.122167 0 0 255
0.345478 0.035144 -0.394265 0 0 255
-0.948400 -0.376650 -0.317200 0 0 255
-0.977700 -0.008200 -0.400604 0 0 255
0.304235 -0.322512 -0.184459 0 0 255
-0.434500 0.311583 0.151916 0 0 255
-0.913400 -0.511800 -0.013153 0 0 255
0.942200 -0.200200 0.272400 0 0 255
-0.897300 -0.094533 -0.414769 0 204 0
-0.174386 -0.278114 -0.318131 0 0 255
-0.354622 0.232144 -0.302158 0 0 255
-0.204436 0.291821 0.232087 0 0 255
-0.985800 0.043850 -0.381897 0 0 255
-0.625571 0.224086 -0.283888 0 0 255
0.923500 -0.279900 0.129501 0 0 255
-0.315072 0.317278 -0.194990 0 0 255
0.448350 0.002250 -0.389946 0 0 255
-0.693367 -0.296800 0.317800 0 204 0
0.034308 -0.401668 0.074417 255 0 0
0.804200 -0.070400 0.380493 0 0 255
-0.424975 0.161025 -0.350796 0 0 255
-0.798900 0.261300 0.175201 0 204 0
0.885025 0.395550 0.294697 0 0 255
0.204344 0.416622 -0.085015 0 0 255
0.454722 0.134467 0.394691 255 255 0
-0.405362 -0.143137 -0.400564 0 0 255
0.273717 -0.370683 0.053017 0 0 255
-0.655933 -0.045900 0.378469 0 0 255
0.224928 0.255256 -0.325308 0 0 255
0.534950 -0.104050 -0.294299 255 127 0
0.285110 -0.292090 0.242158 255 255 0
-0.134920 0.164518 -0.361868 0 0 255
0.961500 -0.216050 -0.214348 0 0 255
-0.194271 0.212286 -0.331266 0 0 255
-0.514975 -0.429025 0.156803 0 0 255
-0.277800 -0.340600 0.250504 0 0 255
-0.395112 -0.454288 -0.015310 0 0 255
-0.643633 -0.104433 -0.414134 0 0 255
0.194783 0.401861 -0.135411 0 0 255
0.365113 0.194307 -0.365054 0 0 255
0.158300 0.420333 -0.003835 0 0 255
0.145600 0.232269 0.331474 255 255 0
-0.455083 0.122717 0.341899 0 0 255
-0.791400 -0.432500 0.202606 0 204 0
0.524575 -0.340300 -0.044700 0 0 255
0.739500 -0.198200 -0.269196 0 0 255
-0.575186 0.124500 -0.364498 0 0 255
-0.986300 0.237000 0.174751 0 0 255
-0.035712 -0.402016 0.074336 0 0 255
0.094687 0.054882 0.392695 255 255 0
-0.145380 0.320730 -0.221297 0 0 255
0.474700 0.275375 0.337339 255 255 0
0.324050 -0.320200 0.190697 0 0 255
-0.800400 0.241600 0.210403 0 204 0
0.655100 -0.311250 -0.101448 0 0 255
0.504714 -0.194414 0.323356 255 255 0
0.174981 0.421437 0.014807 0 0 255
0.795300 0.151000 0.410294 0 0 255
-0.956900 -0.347900 0.309708 0 0 255
0.044486 -0.371709 -0.154166 0 0 255
0.515083 0.435383 0.154884 0 0 255
0.284300 0.318783 -0.278780 0 0 255
-0.397200 0.128833 -0.369695 0 0 255
0.584100 0.456825 -0.104248 0 0 255
0.564400 0.348000 -0.278801 0 0 255
0.603817 -0.332917 -0.016050 0 0 255
0.814633 0.428433 0.243301 0 0 255
0.674867 -0.163733 0.331802 0 0 255
0.664000 0.473200 0.094703 0 0 255
-0.295057 -0.302214 -0.311927 0 0 255
-0.887100 -0.485000 0.118301 0 0 255
0.475350 -0.161400 -0.330498 0 0 255
0.364323 -0.005138 0.399580 255 255 0
-0.225369 0.045142 0.379106 0 0 255
0.749100 0.134900 -0.381805 160 33 239
0.894150 -0.195850 0.284401 0 0 255
-0.664025 -0.004975 0.374275 0 0 255
0.067540 0.250660 0.310638 255 255 0
-0.584600 0.280200 -0.211105 0 0 255
0.594883 -0.192850 -0.293216 0 0 255
0.626425 0.436850 0.184299 0 0 255
0.304809 -0.084756 -0.377304 0 0 255
-0.245135 -0.214696 0.344207 0 0 255
-0.886050 -0.262850 0.352302 0 204 0
0.746800 0.306400 0.348549 0 0 255
0.565817 0.174683 -0.337301 160 33 239
0.234731 -0.117808 -0.369206 0 0 255
-0.335113 0.273569 0.234089 0 0 255
0.264690 -0.194938 0.333348 255 255 0
-0.255040 -0.435827 -0.035601 0 0 255
0.605300 -0.083700 -0.241250 255 127 0
-0.096167 0.359267 -0.158566 0 0 255
0.794200 0.373950 -0.272950 0 0 255
0.692750 -0.322050 0.044350 0 0 255
0.554950 0.453633 -0.103999 0 0 255
-0.504986 -0.385471 -0.254571 0 0 255
0.234885 0.034603 -0.394640 0 0 255
-0.524800 -0.453020 -0.126019 0 0 255
-0.035142 -0.410729 -0.015863 0 0 255
0.174464 -0.382755 0.045203 0 0 255
-0.505580 -0.460860 -0.084921 0 0 255
-0.345189 0.276284 -0.255679 0 0 255
-0.705567 -0.402900 0.223567 0 204 0
0.114948 -0.095045 0.382146 255 255 0
0.524550 -0.167075 0.338276 255 255 0
0.234780 0.423147 0.064094 0 0 255
0.435167 -0.353789 0.025035 0 0 255
0.075206 0.398882 -0.095546 0 0 255
-0.527700 -0.310600 0.300903 0 0 255
0.724050 0.448650 0.187347 0 0 255
-0.235517 -0.328750 -0.279101 0 0 255
0.404300 0.429700 0.127808 0 0 255
-0.044400 -0.409925 -0.046326 0 0 255
-0.544483 -0.353983 0.264651 0 0 255
-0.025064 0.347900 -0.196604 0 0 255
-0.433133 -0.388100 -0.237864 0 0 255
0.185020 0.104957 0.386520 255 255 0
-1.035350 0.206700 -0.245751 0 0 255
-0.656575 -0.174900 -0.403874 0 204 0
-0.962400 -0.136250 -0.413704 0 0 255
-0.584960 -0.435680 0.154776 0 0 255
-0.425082 -0.205473 0.355835 0 0 255
-0.334000 0.290600 0.210701 0 0 255
0.795850 0.154550 -0.380547 0 0 255
-0.694700 -0.360950 -0.303048 0 204 0
0.264506 -0.342550 -0.154934 0 0 255
0.184668 -0.176072 0.347556 255 255 0
-0.035253 0.278400 -0.288660 0 0 255
-0.535750 0.335575 0.024385 0 0 255
0.435300 -0.268825 -0.238548 0 0 255
-0.124690 0.152167 0.350754 0 0 255
0.264300 0.350475 0.241073 255 255 0
-0.887300 0.283250 -0.114899 0 204 0
-0.624250 -0.213900 -0.390899 0 0 255
-0.913900 0.221700 0.212303 0 204 0
0.104469 -0.361006 0.152900 0 0 255
-0.234375 -0.434750 -0.015756 0 0 255
0.366243 -0.359343 0.056128 0 0 255
-0.603517 0.015500 0.372053 0 0 255
-0.334700 0.329333 0.139135 0 0 255
0.705000 -0.254900 -0.205376 0 0 255
0.546580 -0.340940 -0.005158 0 0 255
-0.034795 0.016254 0.389747 0 0 255
-0.275741 0.363888 0.035130 0 0 255
-0.726500 -0.487100 -0.039597 0 204 0
0.884800 0.341500 0.340698 0 0 255
0.496225 -0.318250 0.157475 0 0 255
0.525433 0.254850 0.354401 0 0 255
0.345456 0.054794 0.401474 255 255 0
0.595300 0.235367 -0.317266 160 33 239
-0.205763 0.269037 0.258749 0 0 255
-0.525050 0.182200 -0.331048 0 0 255
-0.955400 -0.392800 0.272095 0 0 255
-0.474722 0.332056 0.084464 0 0 255
-0.535086 -0.045686 -0.412811 0 0 255
0.044754 0.285473 -0.286607 0 0 255
-0.028833 -0.400167 0.082397 0 0 255
-0.957600 -0.494300 -0.149200 0 0 255
-0.375362 -0.204954 0.354391 0 0 255
-0.205700 -0.429950 0.016998 0 0 255
0.462800 0.439200 0.125768 0 0 255
0.364538 -0.245692 0.286747 255 255 0
-0.532933 0.112333 0.341232 0 0 255
0.424520 -0.334310 0.134091 0 0 255
-0.546200 0.161100 0.311701 0 0 255
0.058400 -0.359225 0.178322 255 0 0
-0.764633 0.294467 0.085063 0 204 0
0.384838 -0.165056 -0.336310 0 0 255
-0.746080 0.215620 0.235639 0 204 0
0.045279 0.291414 -0.281601 0 0 255
0.575300 -0.221200 0.291504 0 0 255
-0.069100 -0.169900 -0.370499 0 0 255
0.064903 0.353780 -0.204592 0 0 255
-0.221400 -0.389900 -0.189896 0 0 255
0.303333 -0.300733 -0.220703 0 0 255
0.704300 -0.024550 0.396850 0 0 255
-0.424380 -0.410960 0.173679 0 0 255
0.364600 0.307100 -0.297701 0 0 255
0.284550 -0.231025 -0.300751 0 0 255
0.344869 0.355908 -0.245730 0 0 255
0.845400 0.498567 -0.045100 0 0 255
0.374660 -0.349180 -0.096300 0 0 255
0.035057 0.254200 0.302979 255 255 0
0.345206 0.005256 -0.392961 0 0 255
-0.274817 -0.164665 -0.387330 0 0 255
-0.364693 0.296960 0.194921 0 0 255
0.003300 0.379500 0.117548 0 0 255
0.274485 -0.242046 -0.292115 0 0 255
0.374788 0.332550 0.282715 255 255 0
0.125380 -0.299320 0.249402 0 0 255
-0.335378 -0.157200 0.369032 0 0 255
-0.436086 -0.453443 0.053728 0 0 255
-0.076080 -0.167775 -0.371195 0 0 255
0.923767 -0.213400 -0.224604 0 0 255
0.634925 0.415700 -0.205452 0 0 255
0.707750 -0.300650 0.141853 0 0 255
0.365253 -0.074833 0.386354 255 255 0
-0.305295 0.075838 0.368786 0 0 255
-0.484829 -0.255714 -0.363887 0 0 255
0.105656 0.331831 -0.242426 0 0 255
0.486200 0.358633 0.268565 0 0 255
-0.654325 -0.215575 0.355953 0 204 0
-0.983600 0.278150 -0.094856 0 0 255
-0.284400 -0.411892 0.135214 0 0 255
0.265222 0.332011 -0.262388 0 0 255
-0.645875 0.015900 -0.404274 0 0 255
0.095478 -0.156673 -0.358238 0 0 255
0.264843 -0.346805 -0.145386 0 0 255
-0.095600 0.148850 -0.369534 0 0 255
0.374650 -0.074844 -0.376551 0 0 255
-0.374827 -0.414791 0.155352 0 0 255
-0.014912 -0.154749 0.362348 0 0 255
-0.284771 -0.235305 0.335219 0 0 255
-0.677000 0.190300 -0.311203 0 0 255
-1.001200 0.282250 0.027199 0 0 255
0.255271 -0.376135 -0.014782 0 0 255
0.205232 -0.296473 0.246195 255 255 0
-0.243300 0.251287 0.271688 0 0 255
-0.966600 0.148200 0.287003 0 0 255
-0.445800 0.227950 0.268028 0 0 255
-0.972700 -0.361700 -0.331100 0 0 255
0.175100 -0.225326 -0.316982 0 0 255
0.376500 0.221650 0.360604 255 255 0
0.245238 -0.376110 0.034900 0 0 255
-0.385200 0.251100 0.251171 0 0 255
0.634600 -0.228000 0.278030 0 0 255
0.274860 -0.145307 -0.355049 0 0 255
-0.139400 0.379750 -0.057350 0 0 255
-0.245327 0.342827 0.134609 0 0 255
-0.595200 -0.255340 0.337378 0 0 255
0.074945 0.044809 0.391036 0 0 255
0.685900 -0.076900 0.379333 0 0 255
-0.234736 0.213975 0.303274 0 0 255
-0.224874 -0.323668 -0.283674 0 0 255
-0.385900 0.328537 -0.156037 0 0 255
-0.615283 -0.144867 0.373866 0 0 255
-0.185908 0.228485 -0.318601 0 0 255
0.245405 -0.371868 0.065079 0 0 255
-0.286013 0.339137 0.127924 0 0 255
0.255222 0.087733 -0.389716 0 0 255
-0.053791 -0.409355 0.045425 0 0 255
0.234912 0.417818 -0.094593 0 0 255
-0.315092 -0.444400 -0.025453 0 0 255
0.454967 0.206483 -0.338598 160 33 239
0.566900 0.041600 -0.389893 0 0 255
0.455764 0.094600 0.401426 255 255 0
-0.345562 -0.255169 -0.351929 0 0 255
0.912800 0.484000 0.163193 0 0 255
0.405350 0.358050 0.257268 255 255 0
-0.823400 -0.337000 0.306251 0 204 0
-0.829700 0.064033 0.356735 0 204 0
-0.185100 -0.266967 0.308234 0 0 255
-0.327600 -0.410900 0.150406 0 0 255
-1.005900 0.194433 0.235031 0 0 255
-0.606280 -0.214360 -0.390680 0 0 255
-0.694600 -0.329800 -0.329605 0 204 0
0.134543 0.156180 0.368900 255 255 0
-0.566767 -0.450833 0.114766 0 0 255
-0.033925 -0.399475 -0.098900 0 0 255
0.447900 0.300800 -0.310196 0 0 255
0.075068 0.342264 -0.223604 0 0 255
-0.245125 0.196780 -0.337920 0 0 255
0.108800 0.180600 -0.360001 0 0 255
0.645150 0.215950 0.382332 0 0 255
0.844650 0.502600 0.044304 0 0 255
0.795850 0.485450 0.113701 0 0 255
0.155053 0.074792 0.391137 255 255 0
0.125100 -0.179150 0.349647 255 255 0
-0.828600 0.058700 0.359695 0 204 0
-0.014950 0.121555 0.370442 0 0 255
-0.474513 0.015550 -0.405836 0 0 255
0.907400 0.036800 0.410797 0 0 255
-0.990800 -0.144700 -0.413247 0 0 255
0.606140 0.416780 0.215082 0 0 255
-0.855333 0.306150 -0.045169 0 204 0
-1.009600 0.088900 -0.357193 0 0 255
-0.995400 0.246750 -0.185151 0 0 255
-0.055035 0.263687 0.283545 0 0 255
-0.244717 0.300933 0.211184 0 0 255
-0.294457 0.110971 -0.380631 0 0 255
0.368167 0.361600 0.251267 255 255 0
0.855650 -0.251100 0.215294 0 0 255
-0.295133 -0.331583 0.261983 0 0 255
0.494700 -0.226763 -0.277037 0 0 255
-0.294537 -0.337637 -0.278025 0 0 255
-0.455000 0.329500 -0.129501 0 0 255
0.715100 -0.317400 0.066366 0 0 255
-0.214960 -0.205253 -0.367704 0 0 255
0.464878 -0.326789 0.145055 0 0 255
0.164741 -0.385727 0.024632 0 0 255
0.337300 0.005200 0.400208 255 255 0
0.345840 -0.065553 0.388962 255 255 0
0.926600 0.496800 -0.089401 0 0 255
-0.015775 0.388114 -0.095110 0 0 255
-0.007900 0.149600 0.359863 0 0 255
-0.839150 -0.501750 0.014602 0 204 0
0.655233 0.346700 -0.286535 0 0 255
0.425191 -0.023736 -0.386629 0 0 255
-0.763533 -0.005600 -0.395101 0 204 0
0.574600 0.104750 0.404373 0 0 255
0.205267 0.341600 0.241799 255 255 0
-0.648900 -0.141500 -0.410294 0 0 255
0.034388 -0.392426 -0.095166 0 0 255
0.105099 -0.025058 0.394421 255 255 0
0.134875 -0.389167 -0.034711 0 0 255
0.194587 -0.241912 -0.301623 0 0 255
-0.576167 -0.471000 0.035670 0 0 255
-0.274815 -0.034869 0.386508 0 0 255
0.714225 0.275150 0.363373 0 0 255
0.604900 -0.074760 -0.245761 255 127 0
1.003150 -0.245950 -0.154243 0 0 255
-0.193900 0.249667 -0.299728 0 0 255
-0.365367 -0.381267 0.211965 0 0 255
0.374587 -0.273933 -0.244573 0 0 255
0.734700 -0.055300 0.387722 0 0 255
0.444583 -0.312050 0.182884 0 0 255
-0.975900 0.224500 -0.229202 0 0 255
-0.454510 0.302830 -0.194962 0 0 255
0.092000 0.269133 0.299464 255 255 0
-0.653100 -0.165533 -0.405599 0 204 0
-0.404850 0.224306 -0.304438 0 0 255
-0.394486 -0.402400 0.182787 0 0 255
-0.795550 -0.426250 -0.243652 0 204 0
-0.564850 -0.354083 0.266319 0 0 255
0.114636 -0.386736 0.065065 0 0 255
-0.978050 -0.133300 0.382850 0 0 255
0.014823 -0.054948 0.388037 0 0 255
-0.334850 -0.294479 -0.323406 0 0 255
-1.044500 0.220000 -0.224106 0 0 255
-0.214597 -0.154928 0.366840 0 0 255
0.365300 0.445345 -0.025328 0 0 255
-0.215250 -0.362263 0.213900 0 0 255
-0.224662 -0.347300 -0.256568 0 0 255
-0.304959 -0.235112 0.336053 0 0 255
0.526250 0.035787 0.404928 0 0 255
0.052400 -0.026600 0.389999 0 0 255
-0.855400 -0.490000 -0.123993 0 0 255
-0.484562 0.183900 -0.332251 0 0 255
-0.995200 0.235200 -0.207397 0 0 255
0.134935 -0.153077 0.361670 255 255 0
-0.025753 0.326817 0.215704 0 0 255
0.899800 0.460800 -0.171997 0 0 255
0.705600 0.452733 0.173436 0 0 255
-0.064315 -0.221292 0.330868 0 0 255
0.415275 -0.218625 0.308448 255 255 0
-0.882800 -0.325400 -0.350204 0 0 255
0.998400 -0.282400 -0.038300 0 0 255
-0.244529 0.262341 -0.282736 0 0 255
-0.614000 -0.366475 0.256653 0 0 255
0.405625 0.339075 0.278149 255 255 0
0.568700 0.311300 -0.310104 0 0 255
-0.284967 0.272033 0.242008 0 0 255
0.763433 0.494867 0.015498 0 0 255
0.004573 0.365187 0.154948 0 0 255
0.004907 0.234035 -0.322658 0 0 255
0.484983 0.461283 0.006248 0 0 255
-0.596700 -0.031250 0.379700 0 0 255
-0.784550 0.246150 -0.226799 0 204 0
-0.445617 -0.276367 -0.347600 0 0 255
0.754533 0.026167 0.407898 0 0 255
0.624850 0.126700 0.403652 0 0 255
0.504000 0.351150 -0.270454 0 0 255
-0.254776 -0.055114 0.385704 0 0 255
0.716650 0.445700 -0.165496 0 0 255
0.355340 -0.225500 -0.296732 0 0 255
-0.063633 0.390322 0.032755 0 0 255
-0.665533 -0.134567 0.376165 0 204 0
-0.195359 -0.406647 -0.145283 0 0 255
0.041820 0.229020 -0.329538 0 0 255
-0.325087 -0.354000 -0.264961 0 0 255
-0.484740 -0.247360 -0.368259 0 0 255
-0.770000 -0.248600 0.351807 0 204 0
0.045031 -0.246669 0.307663 0 0 255
0.185312 -0.297900 -0.247458 0 0 255
-0.916200 0.196100 0.244995 0 204 0
-0.224863 -0.433587 -0.004844 0 0 255
-0.604633 0.094867 0.344584 0 0 255
0.865700 0.254150 0.387001 0 0 255
-0.084800 0.343003 -0.195403 0 0 255
-0.285967 0.309167 0.188899 0 0 255
0.324793 -0.146814 0.358406 255 255 0
0.204733 0.204796 0.352806 255 255 0
-0.314578 0.291867 0.212301 0 0 255
-0.485200 0.176400 -0.337686 0 0 255
-0.704600 0.252600 -0.234630 0 204 0
0.011960 0.288820 0.268723 0 0 255
-0.760100 0.310600 -0.006500 0 204 0
0.805633 0.244267 0.385834 0 0 255
-0.326220 0.359540 -0.045729 0 0 255
0.909600 0.098400 -0.382904 0 0 255
-0.344500 -0.337189 -0.286631 0 0 255
-0.623500 0.208800 -0.299194 0 0 255
0.434370 0.025170 0.402939 255 255 0
0.766400 0.421850 0.242950 0 0 255
-0.406150 0.329100 -0.146634 0 0 255
0.726550 0.212650 0.390800 0 0 255
-0.175144 -0.379122 -0.198232 0 0 255
-0.094750 0.303463 0.234871 0 0 255
-0.555367 -0.412267 0.192230 0 0 255
-0.454050 -0.459467 0.024231 0 0 255
-0.405083 -0.327517 0.278231 0 0 255
-0.886950 -0.500900 -0.094154 0 0 255
0.304267 0.330733 0.270569 255 255 0
0.663267 0.346333 0.307999 0 0 255
-0.744375 0.311350 0.014450 0 204 0
0.384900 -0.197217 0.328552 255 255 0
0.443900 0.187633 -0.349095 160 33 239
0.674150 -0.264600 0.224701 0 0 255
0.625600 0.384380 -0.246075 0 0 255
0.554575 0.082350 -0.381225 160 33 239
-0.725333 0.087000 0.338669 0 204 0
-0.125445 -0.357755 0.206270 0 0 255
-0.873100 -0.469500 -0.184799 0 0 255
-0.805950 -0.135200 0.054794 255 0 255
0.844250 -0.085450 0.371505 0 0 255
0.446050 -0.092500 0.380897 255 255 0
-0.375075 -0.215175 -0.374940 0 0 255
-0.314814 -0.182014 0.360371 0 0 255
-1.022600 0.214800 -0.236206 0 0 255
-0.295111 -0.165374 -0.388522 0 0 255
-0.144998 -0.115098 0.377539 0 0 255
0.970900 -0.171200 0.300095 0 0 255
-0.495850 0.125987 -0.367910 0 0 255
-0.245125 -0.421575 -0.114776 0 0 255
0.794775 -0.065375 0.382599 0 0 255
0.304662 -0.134671 0.364651 255 255 0
0.404083 0.146567 0.389366 255 255 0
-0.695200 -0.343425 0.283653 0 204 0
0.164728 0.407556 -0.104740 0 0 255
-0.215600 0.236965 0.287790 0 0 255
0.984200 -0.086350 -0.327706 0 0 255
0.284852 -0.214291 -0.313338 0 0 255
0.677200 -0.324800 0.034500 0 0 255
0.404722 -0.217356 -0.297443 0 0 255
-0.325129 -0.204057 0.351899 0 0 255
-0.395088 0.235081 -0.295407 0 0 255
-0.465267 -0.175289 -0.396946 0 0 255
0.583267 -0.333383 -0.036417 0 0 255
-0.335645 -0.302855 0.293035 0 0 255
-0.114367 -0.419593 -0.016062 0 0 255
0.295025 0.410650 -0.142021 0 0 255
0.513567 -0.311400 -0.151337 0 0 255
0.575700 -0.289467 -0.177897 0 0 255
-0.574940 -0.468340 -0.084616 0 0 255
-0.314820 -0.065290 0.384929 0 0 255
0.065051 -0.276763 -0.287092 0 0 255
0.355800 -0.209650 -0.309647 0 0 255
0.394892 -0.359000 -0.005692 0 0 255
0.064223 0.307165 -0.266945 0 0 255
0.414567 -0.216092 -0.296964 0 0 255
-0.506240 -0.352160 -0.293698 0 0 255
-0.054781 0.015115 0.388624 0 0 255
-0.825300 0.042200 -0.390602 0 204 0
-0.435700 0.290667 0.191167 0 0 255
0.584450 0.264517 0.354586 0 0 255
0.435575 0.431863 0.134987 0 0 255
0.085617 -0.339417 0.199018 0 0 255
0.811650 -0.301100 -0.065201 0 0 255
-0.781900 0.220600 0.234604 0 204 0
0.881200 0.260000 -0.352295 0 0 255
0.565183 -0.114533 0.367317 0 0 255
0.425767 0.402544 0.195002 0 0 255
-0.094804 0.024700 0.386908 0 0 255
0.664740 -0.314800 -0.083304 0 0 255
0.416300 0.450100 0.042603 0 0 255
0.064667 -0.241100 0.311150 0 0 255
-0.524425 -0.222675 0.351475 0 0 255
-0.515400 0.207720 0.278201 0 0 255
-0.465525 0.121875 -0.370972 0 0 255
-0.464300 0.202100 0.290901 0 0 255
0.045417 0.390483 0.102417 0 0 255
0.894900 0.458100 -0.176300 0 0 255
-0.774867 -0.442300 0.185003 0 204 0
0.024707 0.364920 -0.174951 0 0 255
-0.195018 0.244735 -0.304102 0 0 255
0.444350 -0.280350 -0.221000 0 0 255
0.345517 0.372367 -0.223792 0 0 255
-0.840400 0.190700 0.282593 0 204 0
0.344525 -0.301550 0.222090 255 255 0
0.286358 0.433267 -0.045374 0 0 255
-0.084461 0.383031 0.064609 0 0 255
0.384900 0.412390 0.165390 0 0 255
-0.605300 -0.133000 -0.410202 0 0 255
-0.394150 -0.452600 0.025086 0 0 255
-0.656600 -0.311150 -0.342896 0 204 0
0.865050 0.073350 0.415497 0 0 255
0.663100 -0.218550 -0.259346 0 0 255
-0.516450 -0.440250 0.132652 0 0 255
-0.519333 0.339867 -0.014531 0 0 255
-0.264250 -0.259600 0.319504 0 0 255
-0.075134 0.234622 -0.323562 0 0 255
0.206333 0.190767 -0.360235 0 0 255
-1.022100 0.277800 0.042099 0 0 255
-0.574771 -0.134757 0.377145 0 0 255
0.084643 -0.375167 0.125044 0 0 255
0.493400 0.359100 0.269501 0 0 255
0.909900 0.507500 0.069397 0 0 255
0.155080 -0.384484 -0.054821 0 0 255
0.194752 -0.214488 -0.322862 0 0 255
0.164993 0.355361 0.214959 255 255 0
-1.024600 0.146050 -0.314156 0 0 255
-0.645533 -0.429100 -0.215968 0 204 0
0.115108 0.371454 0.172400 0 0 255
0.394908 -0.315585 -0.175307 0 0 255
0.090925 0.068100 0.389775 255 255 0
0.354331 -0.351938 -0.094517 0 0 255
-0.254894 -0.395825 -0.185225 0 0 255
-0.545350 -0.021700 0.379853 0 0 255
-0.544167 0.217900 -0.297999 0 0 255
0.575033 -0.177900 0.327962 0 0 255
-0.625750 -0.469050 0.075653 0 204 0
0.522700 -0.230600 0.290207 255 255 0
0.064810 0.292605 -0.281879 0 0 255
-0.344767 -0.367911 0.227068 0 0 255
-0.876450 -0.255050 0.355095 0 204 0
-0.555300 -0.449300 -0.147903 0 0 255
-0.395400 -0.361580 0.241540 0 0 255
-0.465600 0.146917 0.328352 0 0 255
-0.224943 -0.413214 0.115015 0 0 255
0.624133 0.024800 0.404836 0 0 255
-0.906000 -0.195650 0.374100 0 204 0
-0.155285 -0.361831 -0.222292 0 0 255
0.636867 0.472200 0.084005 0 0 255
-0.694433 0.242967 0.212702 0 0 255
-0.484600 -0.279500 0.319595 0 0 255
0.154964 0.233336 0.332110 255 255 0
-0.055050 -0.230400 -0.340447 0 0 255
-0.158367 -0.359267 0.208964 0 0 255
0.004697 0.317544 -0.246730 0 0 255
0.725200 0.316200 0.339600 0 0 255
0.495317 0.412650 0.195620 0 0 255
0.613700 -0.309650 0.146698 0 0 255
-1.016450 0.263050 0.107147 0 0 255
-0.443925 0.161200 0.321022 0 0 255
0.595020 0.463380 -0.084537 0 0 255
-1.029000 0.279100 0.026901 0 0 255
0.915900 0.124300 -0.382454 0 0 255
-0.464650 -0.407133 0.186684 0 0 255
-0.905450 -0.234800 -0.394401 0 0 255
0.804233 -0.145033 0.337662 0 0 255
0.415033 0.115025 0.397067 255 255 0
0.004255 0.267300 0.287611 0 0 255
0.065548 0.408191 -0.015409 0 0 255
0.194370 0.228100 0.338820 255 255 0
-0.826033 -0.094867 0.384099 0 204 0
-0.043857 -0.032548 0.390457 0 0 255
0.026146 -0.403526 0.054240 255 0 0
0.124609 -0.244546 0.304235 255 255 0
-0.931500 0.270900 0.111206 0 204 0
-0.540200 0.320000 -0.130997 0 0 255
0.244780 -0.127140 0.369041 255 255 0
0.454444 -0.283211 0.234399 255 255 0
-0.174860 0.229100 0.299176 0 0 255
-0.684100 0.102400 -0.370849 0 204 0
-0.705925 -0.144575 0.374077 0 204 0
0.325644 -0.348989 -0.116355 0 0 255
-0.325244 -0.445944 -0.015023 0 0 255
-0.805333 -0.255033 0.352031 0 204 0
-0.694550 0.312700 0.046101 0 0 255
-0.245063 -0.215279 -0.365175 0 0 255
-0.948200 -0.297800 -0.369598 0 0 255
0.784550 0.275200 -0.341599 0 0 255
-0.463967 -0.013267 -0.409800 0 0 255
-0.185308 -0.371958 0.193052 0 0 255
0.355256 0.284663 -0.314700 0 0 255
-0.544733 0.296283 0.155217 0 0 255
-0.945600 -0.416500 0.245804 0 0 255
0.075100 -0.385284 -0.105136 0 0 255
0.226148 -0.045081 -0.388419 0 0 255
-0.425833 -0.351533 -0.282033 0 0 255
-0.264955 0.044831 0.377975 0 0 255
-0.204429 -0.358757 -0.238142 0 0 255
0.525050 -0.035500 0.394699 0 0 255
0.083751 0.067018 0.389235 255 255 0
-0.644067 0.257800 -0.237768 0 0 255
0.553933 0.367400 -0.258097 0 0 255
-0.704975 -0.173700 -0.403225 0 204 0
0.838700 0.205600 -0.370102 0 0 255
0.095139 -0.104869 0.377796 255 255 0
-0.768050 -0.456450 0.167801 0 204 0
0.626250 0.296025 -0.323776 0 0 255
-0.285620 0.291870 -0.242219 0 0 255
-0.054436 -0.348757 0.207643 0 0 255
-0.971450 -0.007350 0.369346 0 0 255
0.884400 0.045450 -0.379547 0 0 255
-0.823550 -0.478350 -0.147155 0 204 0
-0.055405 -0.202014 0.341962 0 0 255
-0.404400 0.078950 -0.389404 0 0 255
-0.475167 -0.461733 0.025533 0 0 255
-0.364845 0.355655 0.015572 0 0 255
-0.256514 0.037229 0.379687 0 0 255
0.364757 -0.313307 0.195164 0 0 255
-0.065800 -0.410613 -0.063627 0 0 255
0.024841 0.327318 -0.236596 0 0 255
-0.135369 0.363019 -0.135222 0 0 255
-0.105236 -0.324459 -0.265024 0 0 255
0.873233 0.055267 -0.380997 0 0 255
0.816300 0.115500 -0.383866 0 0 255
1.011400 -0.201300 0.261093 0 0 255
-0.354775 0.074737 -0.392526 0 0 255
-0.235441 0.164994 0.334616 0 0 255
-0.005579 -0.185595 0.348299 0 0 255
0.115007 0.214595 -0.342910 0 0 255
-0.693400 0.306300 0.076233 0 0 255
0.824600 0.264650 0.378807 0 0 255
-0.184996 0.186564 0.327853 0 0 255
-0.664300 -0.383500 0.243927 0 204 0
0.404820 -0.248540 -0.268140 0 0 255
0.302100 -0.270500 -0.260895 0 0 255
-0.883850 -0.193550 -0.405304 0 204 0
0.931933 0.144967 0.416702 0 0 255
0.284694 -0.216388 0.317193 255 255 0
-0.867000 0.280300 0.104996 0 204 0
-0.764233 -0.034300 0.375463 0 204 0
0.215110 -0.317235 0.215469 255 255 0
0.464862 -0.351250 0.005661 0 0 255
-0.115024 0.338288 -0.197676 0 0 255
0.624900 -0.095800 0.373368 0 0 255
-0.794725 0.224925 -0.254524 0 204 0
0.454989 0.366456 0.255459 255 255 0
0.065424 -0.356280 0.175864 255 0 0
-1.008800 0.062700 -0.371597 0 0 255
-0.165121 -0.255194 0.314631 0 0 255
-0.721800 0.172500 -0.320297 0 204 0
0.324631 -0.364900 -0.044114 0 0 255
0.105004 0.065024 0.391645 255 255 0
-0.404380 -0.453520 0.024812 0 0 255
0.174903 -0.165000 0.353822 255 255 0
-0.364929 0.295259 -0.225282 0 0 255
0.505575 0.461300 -0.036598 0 0 255
-0.091400 0.340800 0.180099 0 0 255
0.196367 -0.219267 0.319468 255 255 0
0.916800 -0.187100 -0.256897 0 0 255
0.034903 0.365059 0.165226 0 0 255
-0.536340 -0.468960 0.016101 0 0 255
0.632750 0.316850 0.327049 0 0 255
0.634960 0.164380 0.397321 0 0 255
-0.445240 -0.322520 -0.313037 0 0 255
-0.015581 -0.291937 0.272032 0 0 255
-0.104900 0.378383 0.075155 0 0 255
0.995200 -0.208000 0.254403 0 0 255
0.685767 0.396467 -0.237132 0 0 255
-0.315209 0.114982 0.354449 0 0 255
0.453856 -0.015500 -0.387311 0 0 255
-0.237000 0.082450 -0.390297 0 0 255
-0.495875 -0.255138 0.334576 0 0 255
0.114681 0.225142 -0.336978 0 0 255
0.055253 -0.198227 0.339100 0 0 255
0.706500 -0.242300 -0.222595 0 0 255
-0.235593 0.267736 -0.277964 0 0 255
0.704650 0.485550 -0.025200 0 0 255
0.084637 -0.313912 -0.245028 0 0 255
-1.042700 0.273150 0.057404 0 0 255
-0.414871 0.207543 -0.318100 0 0 255
-0.414820 -0.144710 0.374551 0 0 255
0.663675 0.176400 0.396397 0 0 255
0.564860 -0.338740 -0.003839 0 0 255
-0.065600 0.297787 0.247472 0 0 255
-0.184605 0.142325 0.350880 0 0 255
0.745200 0.004125 0.404175 0 0 255
-0.613100 0.258400 0.207649 0 0 255
0.044922 -0.185196 0.347022 0 0 255
0.615633 -0.329233 -0.038828 0 0 255
0.734450 -0.228750 -0.236649 0 0 255
-0.345042 0.045053 0.374870 0 0 255
0.365000 0.376889 0.224901 255 255 0
-0.114941 0.264791 -0.294400 0 0 255
0.922600 0.406200 0.289307 0 0 255
-0.144474 0.287017 0.247118 0 0 255
-0.883250 0.271150 -0.155205 0 204 0
-0.255182 0.356273 -0.114399 0 0 255
0.455100 -0.253067 0.272766 255 255 0
-0.933850 0.208450 0.227745 0 204 0
-0.155204 0.182669 -0.351528 0 0 255
0.696800 0.484150 0.054146 0 0 255
-0.148100 -0.370400 0.190002 0 0 255
0.887350 0.413200 0.275802 0 0 255
0.868900 0.462100 -0.164505 0 0 255
-0.115011 0.114800 0.366269 0 0 255
0.275065 -0.085139 0.383597 255 255 0
-0.815150 -0.493400 0.055695 0 204 0
-0.743600 0.147700 0.298553 0 204 0
0.843367 -0.297867 0.095362 0 0 255
-0.055027 0.342639 0.184561 0 0 255
-0.492650 -0.116925 -0.409775 0 0 255
-0.365138 -0.325546 0.276494 0 0 255
0.374413 -0.125312 -0.357717 0 0 255
0.424875 -0.353450 0.044949 0 0 255
-0.215079 0.287274 -0.257343 0 0 255
0.696700 0.377900 -0.259705 0 0 255
0.513744 0.084633 -0.386320 160 33 239
0.185135 -0.382270 -0.044917 0 0 255
-0.963400 -0.201800 0.373993 0 0 255
0.523960 -0.267180 0.246100 255 255 0
-0.074996 -0.404496 0.084705 0 0 255
0.515867 -0.043300 -0.261164 255 127 0
-0.535800 -0.461875 0.065075 0 0 255
0.044982 0.367270 -0.175411 0 0 255
-1.040200 0.179000 -0.279602 0 0 255
-0.634600 -0.474317 0.055399 0 204 0
0.474650 0.449025 0.097073 0 0 255
-0.074807 -0.185078 -0.364921 0 0 255
0.564200 0.207300 0.379197 0 0 255
-0.015000 -0.403224 0.055449 0 0 255
-0.375400 -0.367356 -0.256378 0 0 255
-0.295065 -0.024608 -0.407642 0 0 255
0.244645 0.025172 -0.394432 0 0 255
-0.763767 0.263133 0.163071 0 204 0
-0.134823 0.147859 -0.369283 0 0 255
0.404643 0.441857 0.085270 0 0 255
0.254465 -0.373955 -0.044952 0 0 255
-0.595575 -0.457275 0.104477 0 0 255
-0.024343 -0.160314 0.360217 0 0 255
0.620400 0.459900 -0.106705 0 0 255
-0.676175 0.033425 -0.398678 0 0 255
-0.724900 -0.233675 -0.382324 0 204 0
-0.644840 -0.477200 0.043741 0 204 0
-0.077900 -0.300450 0.271202 0 0 255
0.154533 0.390383 0.141668 0 0 255
-0.195068 -0.255800 -0.337125 0 0 255
0.463350 0.428325 -0.147827 0 0 255
-0.736700 -0.327900 -0.328598 0 204 0
0.304450 -0.359750 0.088997 0 0 255
0.504456 0.364489 0.265167 0 0 255
0.712900 0.308600 -0.318802 0 0 255
0.644900 -0.126120 0.357641 0 0 255
-0.425073 0.253055 0.244300 0 0 255
0.794000 0.285100 0.366051 0 0 255
-0.156800 0.150800 0.350052 0 0 255
0.682900 0.379200 0.279495 0 0 255
-0.095192 -0.274166 -0.313618 0 0 255
-0.767150 0.186750 -0.298698 0 204 0
0.425475 -0.248600 0.278099 255 255 0
-0.544525 -0.387875 0.226105 0 0 255
0.741300 0.491550 0.024704 0 0 255
0.405311 0.443944 0.074568 0 0 255
-0.334919 -0.284700 0.306418 0 0 255
0.840500 0.469100 0.177399 0 0 255
0.105517 0.350417 0.210968 255 255 0
-0.644900 -0.114850 0.377952 0 0 255
0.763700 0.192200 0.400101 0 0 255
0.474960 0.154740 -0.367427 160 33 239
-0.614467 -0.161967 0.370427 0 0 255
0.594500 0.434075 -0.165127 0 0 255
0.125100 -0.065500 0.388951 255 255 0
-0.614600 0.302667 0.124682 0 0 255
-0.295168 -0.145058 0.372657 0 0 255
-0.835400 -0.196850 0.372101 0 204 0
1.001500 -0.207300 -0.218704 0 0 255
-0.084732 -0.415036 -0.045031 0 0 255
0.605475 0.435250 -0.164497 0 0 255
0.275250 0.281217 0.311287 255 255 0
-0.244889 -0.314779 0.274102 0 0 255
0.483800 0.364243 -0.254301 0 0 255
-0.084912 -0.385996 0.144782 0 0 255
-0.667500 -0.065825 0.380127 0 204 0
-0.844050 -0.306200 0.328148 0 204 0
-0.085112 -0.411675 0.055032 0 0 255
-0.539850 -0.470350 -0.005547 0 0 255
0.325450 -0.035194 -0.387904 0 0 255
0.104756 0.354007 0.205656 255 255 0
0.121550 -0.239750 0.309646 255 255 0
0.935500 -0.118900 0.346603 0 0 255
-0.032850 0.121350 0.370201 0 0 255
0.377300 -0.260000 -0.259598 0 0 255
0.776650 0.291850 0.361046 0 0 255
-0.484183 -0.443267 0.114014 0 0 255
-0.496200 -0.234957 -0.375214 0 0 255
-0.443733 -0.258867 0.328400 0 0 255
0.883900 -0.198300 -0.249496 0 0 255
0.504800 -0.204717 -0.295802 0 0 255
0.905467 -0.188000 -0.257502 0 0 255
-0.864950 0.277350 -0.144852 0 204 0
-0.855725 0.303575 0.015224 0 204 0
0.294500 0.227700 0.348839 255 255 0
0.254974 -0.317217 -0.205574 0 0 255
-0.465233 0.316411 -0.164590 0 0 255
0.535187 -0.115100 0.367086 0 0 255
0.424713 0.363675 0.253489 255 255 0
-0.224929 -0.432650 -0.035485 0 0 255
0.854450 0.287250 0.371101 0 0 255
0.184912 0.154810 -0.373575 0 0 255
-0.124841 0.034967 0.385357 0 0 255
-0.955500 0.194000 -0.273407 0 204 0
-0.834300 -0.386900 -0.295395 0 204 0
-0.325800 -0.430467 -0.121831 0 0 255
-0.274733 -0.379633 -0.218933 0 0 255
0.551700 -0.099100 -0.270798 255 127 0
0.574300 -0.165543 -0.316757 0 0 255
0.442300 -0.250200 -0.260300 0 0 255
0.263275 -0.030800 -0.390400 0 0 255
-0.406300 -0.440860 0.092758 0 0 255
-0.663675 0.323200 -0.025146 0 0 255
-0.124404 0.385012 -0.024541 0 0 255
0.945050 -0.033250 -0.356147 0 0 255
-0.175100 -0.224933 -0.354090 0 0 255
-1.053100 0.227500 -0.209702 0 0 255
0.365360 0.203630 -0.361340 0 0 255
-0.954300 0.224400 -0.233048 0 0 255
0.661900 0.229000 0.379105 0 0 255
-0.745725 0.223350 -0.264599 0 204 0
0.230500 0.090500 -0.390198 0 0 255
-0.104908 -0.275267 0.296361 0 0 255
-0.339800 -0.430300 -0.130798 0 0 255
-0.488500 0.279500 -0.229996 0 0 255
-0.858300 -0.048800 0.380005 0 204 0
0.464857 0.436343 0.134641 0 0 255
0.644425 0.124950 -0.357899 160 33 239
0.554812 -0.246400 -0.245512 0 0 255
-0.516260 -0.457840 -0.106079 0 0 255
0.134976 -0.158088 0.359271 255 255 0
-0.414871 -0.452343 0.045229 0 0 255
0.456200 -0.271200 0.251404 255 255 0
0.623400 0.429650 0.197800 0 0 255
0.549700 0.411000 0.211304 0 0 255
0.454520 0.115340 -0.388339 0 0 255
0.145000 0.347260 -0.226854 0 0 255
-0.826067 0.074400 0.358195 0 204 0
-0.796000 -0.333233 0.307500 0 204 0
-0.392250 0.230200 -0.300804 0 0 255
0.325940 0.432240 -0.084700 0 0 255
0.553614 0.075271 0.405930 0 0 255
0.521920 0.204720 -0.331320 160 33 239
-0.474400 0.250200 0.240799 0 0 255
0.827300 -0.168500 0.318100 0 0 255
0.544967 0.224900 -0.326017 160 33 239
0.705900 0.402500 -0.231903 0 0 255
0.624517 -0.135350 0.353383 0 0 255
0.239650 -0.369950 -0.078499 0 0 255
-0.393325 0.350437 -0.064486 0 0 255
-0.544575 0.085087 0.352264 0 0 255
-0.843700 -0.479400 -0.151794 0 204 0
-0.338500 -0.410100 -0.180405 0 0 255
0.424400 0.427917 -0.136449 0 0 255
0.439600 -0.259400 -0.249207 0 0 255
-0.315076 -0.334935 -0.284671 0 0 255
0.504650 -0.007950 0.399551 0 0 255
0.844000 -0.235850 -0.207496 0 0 255
-0.585100 -0.438800 0.148499 0 0 255
0.876633 0.164500 0.411799 0 0 255
0.645433 0.427100 0.206838 0 0 255
-0.634300 -0.188450 -0.399696 0 0 255
-0.989100 0.066000 0.339905 0 0 255
0.665250 -0.188400 -0.288651 0 0 255
